39.58,40.1,40.1,39.58,39.58,40.1,40.1,40.1,39.78,39.58,39.78,39.78,39.44,39.78,40.1,40.1,39.78,39.78,40.1,40.1,40.1,40.32,39.78,39.78,32.58,31.82,31.82,31.82,32.54,31.82,31.82,31.82,32.54,32.54,32.54,31.88,32.58,32.61,32.61,32.61,31.88,31.88,32.58,32.58,32.58,32.58,31.88,31.88,31.88,31.88,31.88,32.58,31.88,31.82,31.88,32.58,31.82,31.82,31.75,31.82,31.82,26.39,23.72,23.72,23.08,22.67,22.67,21.79,21.33,21.15,21.33,21.33,22.44,22.44,23.08,23.33,23.33,22.44,22.44,22.44,23.08,23.08,22.44,22.44,21.79,22.44,22.44,22.44,22.44,22.44,22.44,23.08,22.44,23.08,17.9,15.1,15.59,15.1,15.63,15.59,15.1,15.15,15.15,15.1,15.1,15.1,15.63,15.1,15.15,14.65,15.15,15.63,15.63,14.76,14.35,14.81,14.81,14.76,14.76,14.35,14.41,14.41,14.41,14.41,14.76,14.76,14.35,13.33,13.33,13.01,13.33,13.33,13.33,13.68,13.25,13.33,13.33,13.33,13.33,13.33,13.33,13.33,13.33,12.3,12.02,12.4,12.12,12.12,12.12,12.02,12.02,11.74,10.99,10.99,10.99,10.99,10.99,10.99,10.99,10.99,10.99,10.99,10.99,10.76,10.99,11.11,10.76,10.76,10.76,10.99,10.64,11.11,11.11,10.81,10.96,10.53,10.96,10.81,10.81,11.26,11.26,10.96,10.68,10.32,10.46,10.88,11.11,11.11,11.11,11.11,11.11,11.11,11.7,23.08,56.1,56.06,56.21,55.83,55.83,56.01,55.9,56.13,56.13,56.13,55.63,55.63,55.7,55.81,55.61,55.61,55.61,55.67,55.67,55.45,55.56,55.56,55.4,55.4,55.29,55.35,55.35,55.4,55.35,55.4,55.4,55.35,55.35,55.4,55.35,55.4,55.5,55.35,55.26,55.16,55.45,55.17,55.04,54.94,55.45,55.3,55.45,55.4,55.4,55.5,55.56,55.56,55.63,55.63,55.78,56.02,55.87,55.99,55.73,55.91,56.15,56.04,56.04,55.7,55.61,55.61,55.5,55.4,55.07,54.99,55.04,55.04,55.04,55.04,55.04,55.04,55.04,55.04,55.04,55.04,55.04,55.04,54.94,55.04,55.04,55.04,55.16,55.35,55.35,55.67,55.73,55.63,55.63,55.94,55.95,56.19,56.08,56.01,56.01,56.14,55.97,55.97,55.8,56.14,55.86,55.86,55.86,55.86,55.7,12.61,12.22,12.5,11.96,11.46,11.85,11.85,11.85,11.74,11.85,12.02,11.74,11.85,11.85,11.85,11.74,11.85,11.85,11.85,11.85,11.85,11.85,11.85,11.85,12.12,11.85,11.85,11.85,11.85,11.74,11.85,11.35,11.46,11.35,11.46,11.11,11.35,11.35,11.35,11.46,11.22,12.12,12.22,12.4,12.5,12.7,12.7,13.01,12.7,13.01,13.33,14.04,13.96,14.41,14.04,14.04,13.68,13.68,13.96,14.35,14.81,14.76,14.76,13.6,13.01,13.68,14.04,14.35,14.81,14.81,13.96,13.96,14.41,14.41,14.04,14.1,14.04,14.04,13.68,13.68,13.6,14.04,14.04,14.1,14.35,15.15,15.24,14.76,14.35,14.41,14.41,14.41,14.04,14.04,14.47,14.04,14.04,13.68,14.1,14.04,15.15,15.15,15.15,15.15,15.15,14.71,14.65,15.15,15.15,14.71,14.65,14.71,15.15,15.15,15.15,15.15,14.65,15.63,15.15,14.65,14.71,14.71,14.71,14.71,14.76,14.22,20.0,21.79,21.79,22.44,22.67,22.0,21.79,22.0,21.33,21.33,21.79,21.15,21.15,28.47,30.43,31.82,30.43,30.43,31.16,31.82,31.88,32.61,32.61,33.33,34.09,26.39,29.71,31.82,30.43,30.43,30.43,30.43,30.56,30.3,30.43,30.43,29.71,30.43,35.9,38.89,39.25,39.25,39.25,39.25,39.25,39.25,39.78,39.78,39.25,39.44,39.44,39.25,39.25,39.78,39.25,39.25,39.25,39.25,39.25,39.78,40.1,39.78,39.78,39.78,39.78,39.78,39.78,39.78,39.25,39.25,39.25,40.1,40.1,40.1,39.58,39.58,39.58,39.58,39.58,39.58
39.58,39.58,39.58,40.1,40.1,39.58,39.58,39.58,40.1,40.1,40.1,39.58,40.32,40.63,40.1,40.1,39.78,39.78,39.78,39.78,38.69,36.0,36.0,36.11,32.54,32.58,31.82,32.54,32.54,32.54,31.82,32.58,31.82,31.82,32.58,33.33,33.33,32.61,32.61,32.61,32.58,32.54,32.58,32.58,32.58,32.58,31.88,32.58,32.58,32.58,32.58,32.58,32.58,32.58,31.88,31.82,31.75,31.82,31.88,31.82,31.88,26.39,22.67,22.44,21.79,22.0,21.79,21.15,20.99,21.15,21.79,21.79,22.44,22.44,22.44,22.67,23.08,22.67,22.44,22.44,22.44,22.0,22.44,21.79,21.33,21.79,22.44,21.79,22.44,22.44,22.44,23.08,23.08,22.67,19.14,15.59,15.63,15.63,15.63,15.63,15.63,15.63,15.15,15.15,15.15,15.63,15.63,15.1,15.1,15.63,15.1,15.63,15.15,14.41,13.96,14.81,14.41,14.81,14.35,14.35,14.35,14.35,14.41,14.35,14.76,14.76,14.04,13.68,13.33,13.01,13.33,13.33,13.75,13.33,13.01,13.1,13.33,13.33,13.33,13.33,13.33,13.33,13.01,12.12,12.02,12.02,12.02,12.3,12.3,12.3,12.3,11.23,10.99,11.35,10.99,10.99,10.99,10.99,10.99,10.99,10.99,10.99,10.99,11.11,11.11,11.11,10.71,10.71,10.98,10.98,10.98,10.81,11.11,10.53,10.96,10.53,10.68,10.96,11.26,10.81,10.81,10.68,10.16,10.07,10.46,11.11,11.11,11.35,11.85,11.85,11.85,11.96,12.22,21.79,56.1,56.06,56.06,56.01,55.9,55.9,55.97,56.13,56.04,55.79,55.63,55.7,55.76,55.68,55.61,55.61,55.79,55.61,55.56,55.45,55.29,55.45,55.4,55.35,55.35,55.35,55.3,55.45,55.45,55.45,55.45,55.45,55.45,55.45,55.45,55.35,55.45,55.4,55.2,55.3,55.45,55.41,55.16,55.21,55.45,55.45,55.45,55.45,55.34,55.61,55.61,55.73,55.63,55.63,55.86,55.97,55.88,55.82,55.93,55.91,55.91,56.22,56.13,55.84,55.62,55.61,55.56,55.45,55.12,54.99,55.04,55.04,55.04,55.04,55.04,55.04,55.04,55.04,55.04,55.04,55.04,55.04,55.04,55.04,55.04,55.04,55.16,55.45,55.45,55.67,55.79,55.68,55.69,55.7,55.63,56.1,56.06,56.06,55.99,55.83,56.06,55.97,55.8,56.1,56.1,55.69,55.98,56.14,55.86,43.94,41.67,21.43,12.22,11.7,11.96,11.85,11.85,11.85,11.74,12.12,11.85,11.85,12.12,11.85,11.85,11.85,11.85,11.85,11.85,12.12,11.85,11.85,12.12,11.85,11.85,11.85,11.85,11.85,12.12,11.59,11.35,11.46,11.46,11.46,11.11,11.11,11.11,11.11,11.46,11.11,12.12,12.5,12.5,12.4,12.7,12.7,12.7,13.01,13.01,13.01,13.68,13.96,13.96,14.04,14.1,14.04,13.96,14.76,14.81,14.81,14.35,13.68,13.33,13.1,13.1,12.92,14.81,14.81,14.81,14.41,13.96,14.41,14.04,14.1,13.75,13.33,13.68,13.68,13.68,13.96,14.04,14.04,14.04,14.41,15.24,14.81,14.76,14.76,14.41,14.41,14.41,14.41,14.04,14.04,14.04,14.04,14.1,14.04,14.04,14.35,14.76,14.71,15.1,15.15,14.65,14.65,14.65,14.65,15.1,15.15,14.65,15.15,15.15,15.15,14.65,15.15,14.65,15.15,14.71,14.71,14.71,14.71,14.71,14.71,14.71,20.51,21.79,21.79,22.44,22.44,22.44,22.44,22.44,21.79,21.79,22.0,21.79,21.6,28.79,30.43,31.06,30.43,31.06,31.82,31.88,33.33,33.33,31.88,26.81,26.81,24.0,25.0,25.69,30.43,30.43,31.06,30.43,30.56,30.43,29.71,30.3,30.3,31.06,33.33,38.51,38.89,39.25,39.44,39.78,39.78,39.25,39.78,40.1,38.89,38.89,38.89,39.25,39.78,39.78,39.25,39.78,39.78,39.78,39.78,40.1,39.78,39.78,39.78,39.78,39.78,39.78,39.78,39.78,39.78,39.78,39.25,40.1,40.1,40.1,40.1,40.1,39.58,39.58,40.1,40.1
39.58,39.58,39.58,40.1,40.1,40.1,40.1,39.58,40.1,40.1,39.78,39.78,39.78,39.78,39.25,39.78,39.78,39.25,39.78,39.78,38.89,38.1,34.09,32.54,32.58,31.82,32.54,32.54,32.54,32.54,31.82,32.58,31.82,31.82,32.58,32.58,32.58,31.88,32.58,31.88,31.82,31.82,32.54,31.82,31.82,32.58,32.58,32.58,31.88,31.88,31.88,32.58,32.58,31.82,31.82,31.16,31.06,31.88,31.88,31.88,32.58,26.39,22.67,21.79,21.15,21.15,21.15,21.15,21.15,22.0,22.0,22.44,22.0,22.0,21.79,22.0,21.33,22.44,22.44,22.44,22.44,21.79,21.79,21.79,21.79,22.44,22.67,22.0,22.44,22.44,22.44,22.44,23.08,22.67,18.52,15.63,15.1,15.63,15.63,15.63,15.63,15.63,15.15,15.15,15.63,15.63,15.63,15.63,15.63,15.59,15.1,15.63,15.15,14.35,14.41,13.96,14.04,14.41,14.41,14.41,14.81,14.35,14.35,14.41,13.68,14.04,13.33,13.01,13.01,13.01,13.33,13.33,13.01,13.1,13.01,13.01,13.01,13.33,13.68,13.33,13.33,12.7,12.4,12.12,11.74,12.02,12.02,12.12,12.02,11.48,11.23,11.35,11.35,10.99,10.99,10.99,10.99,10.76,10.99,10.99,10.76,10.76,10.76,10.99,11.25,11.26,11.26,10.96,10.81,10.81,10.81,10.81,10.81,10.81,11.26,10.53,10.68,10.81,10.81,10.96,10.42,10.37,10.0,10.26,10.88,11.11,11.59,12.22,12.5,12.22,44.44,12.12,14.74,54.0,56.1,56.2,55.85,56.06,55.88,56.13,56.02,55.78,55.78,55.7,55.7,55.83,55.62,55.5,55.61,55.61,55.61,55.45,55.4,55.4,55.4,55.4,55.45,55.35,55.45,55.3,55.3,55.45,55.45,55.45,55.45,55.45,55.4,55.45,55.45,55.45,55.45,55.4,55.3,55.3,55.45,55.45,55.3,55.3,55.45,55.45,55.45,55.3,55.5,55.61,55.61,55.56,55.63,55.7,56.02,55.9,55.99,56.03,56.06,55.76,55.75,56.06,56.13,55.7,55.69,55.61,55.67,55.45,55.12,54.94,54.94,55.04,55.04,55.04,55.04,55.04,55.04,55.04,55.04,55.04,55.04,55.04,55.04,55.04,55.04,55.04,55.16,55.3,55.45,55.34,55.73,55.73,55.62,55.77,55.56,55.78,56.19,56.04,56.04,55.99,55.83,55.93,56.09,56.0,56.0,56.21,56.16,55.95,55.95,55.86,55.86,55.38,21.43,12.22,12.5,11.23,11.85,11.85,11.85,11.74,11.74,12.12,11.85,11.85,11.85,11.85,11.85,12.12,11.85,12.12,11.85,11.85,11.85,11.85,11.85,11.85,11.85,12.12,11.85,11.59,11.11,11.11,11.7,12.32,12.32,11.85,11.85,11.85,11.85,11.85,12.12,12.5,12.4,12.4,12.7,12.7,12.79,12.7,13.1,13.33,14.04,14.04,14.04,14.04,14.1,14.41,14.81,14.76,14.76,14.76,13.68,13.41,12.4,12.4,12.79,12.7,14.41,13.96,13.96,14.41,14.04,13.68,14.1,13.33,13.75,13.68,14.04,14.47,14.04,13.96,14.47,14.04,14.41,14.81,14.81,14.81,14.81,14.41,14.04,14.04,14.04,14.41,14.04,14.04,14.04,14.04,14.04,14.04,14.04,14.04,14.41,13.89,15.2,14.65,15.15,15.15,14.65,15.15,15.1,15.1,14.65,14.65,15.63,15.63,15.63,15.63,15.1,15.1,14.71,14.71,14.71,14.71,14.76,14.76,14.71,16.11,16.67,21.79,22.44,22.44,22.44,22.44,22.44,21.79,21.79,21.33,21.33,26.0,29.71,31.75,31.82,31.88,31.88,32.61,31.88,32.58,31.82,25.69,24.0,24.0,22.67,22.44,22.0,30.3,31.16,30.43,30.43,29.86,29.86,29.71,30.3,31.16,31.82,30.43,32.61,33.33,39.08,38.89,39.44,39.25,39.25,38.89,38.89,38.51,38.51,39.25,39.25,39.78,39.78,39.78,40.1,40.1,39.78,39.78,39.78,39.78,39.78,39.78,39.78,39.78,40.1,39.78,39.25,39.78,39.78,39.25,40.1,40.1,40.1,40.1,40.1,40.1,40.1,40.1,40.1
40.1,39.78,39.58,40.1,40.1,40.1,40.1,40.1,40.1,39.78,39.78,39.44,39.44,39.44,38.89,39.44,39.78,39.25,39.25,39.78,39.78,39.25,34.72,32.54,31.82,32.54,32.54,32.54,31.82,32.54,31.82,31.82,31.82,32.58,32.61,32.58,31.82,31.06,31.16,31.16,31.75,31.82,31.82,32.54,32.58,32.58,32.58,32.54,31.82,31.82,31.82,32.58,31.82,31.88,30.43,30.43,31.06,31.88,31.88,32.58,31.88,26.39,22.0,21.33,21.15,21.6,21.15,21.15,22.0,22.67,22.67,22.0,21.33,21.33,21.79,21.6,21.79,21.33,21.79,21.79,21.79,21.79,21.79,22.44,22.44,22.44,22.67,22.67,22.44,22.44,23.08,22.44,22.67,23.33,18.52,15.63,15.1,15.63,15.63,15.63,15.15,15.63,15.15,15.63,15.63,15.63,15.63,15.63,15.63,15.63,15.59,16.13,15.63,14.76,14.35,14.41,14.41,14.41,14.04,14.81,14.81,14.41,14.41,14.41,13.01,13.33,13.33,13.33,13.01,13.01,13.33,13.01,13.01,13.01,13.01,13.01,13.01,13.33,13.68,13.33,13.33,12.7,12.02,12.12,11.85,11.74,11.85,12.12,11.85,10.99,10.99,10.99,10.99,10.99,10.99,10.99,10.99,10.99,10.99,10.99,10.76,10.76,11.11,11.11,11.26,11.26,11.26,11.26,10.81,11.26,11.26,11.26,11.11,11.11,11.11,10.81,10.68,10.53,10.68,10.42,9.92,10.42,10.26,10.26,11.11,11.11,14.04,54.0,54.67,54.67,55.56,55.13,55.17,55.83,56.03,56.41,56.11,55.88,56.13,56.1,55.7,55.84,55.63,55.7,55.63,55.56,55.61,55.67,55.61,55.61,55.23,55.4,55.4,55.5,55.35,55.5,55.45,55.45,55.3,55.3,55.3,55.3,55.3,55.3,55.45,55.45,55.45,55.45,55.45,55.45,55.45,55.3,55.3,55.3,55.3,55.3,55.3,55.3,55.45,55.3,55.3,55.45,55.35,55.61,55.61,55.62,55.7,55.78,55.87,55.73,55.82,55.86,55.97,56.09,55.85,56.06,56.13,55.7,55.69,55.61,55.61,55.56,55.35,55.3,54.94,55.04,55.04,55.04,55.04,55.04,55.04,55.04,55.04,55.04,55.04,55.04,55.04,55.04,55.0,55.0,55.16,55.5,55.4,55.35,55.73,55.73,55.73,55.69,55.56,55.63,55.48,55.95,56.28,56.04,56.13,55.88,56.01,56.11,55.93,55.85,56.09,56.21,55.8,55.68,56.06,55.81,55.39,18.89,12.79,11.59,11.35,11.59,11.85,11.85,11.85,12.12,11.85,11.85,11.85,11.85,11.85,11.74,11.85,11.85,11.85,11.85,12.12,11.74,11.85,11.85,12.12,12.12,11.59,11.7,11.46,11.22,12.32,12.5,12.12,12.5,12.5,12.59,12.59,12.5,12.5,12.4,12.79,12.79,12.7,12.7,12.79,12.79,13.1,13.33,14.04,14.04,14.04,14.04,14.35,14.81,14.76,14.76,14.76,14.76,13.33,12.7,12.4,12.4,12.7,12.7,13.96,13.96,14.04,13.68,13.68,13.75,14.1,13.68,13.6,14.04,14.04,13.96,14.04,14.04,14.41,14.41,14.41,14.35,14.81,14.76,14.81,14.81,14.41,14.04,14.04,14.41,14.04,14.04,14.04,14.04,14.04,14.04,14.04,14.41,14.41,13.96,14.76,15.15,15.63,15.63,15.15,14.65,14.65,14.65,15.1,14.65,15.1,15.15,15.15,15.15,15.1,14.71,14.71,14.71,14.71,15.2,14.71,14.71,14.71,14.71,15.63,21.79,22.44,21.79,21.79,21.79,21.79,21.15,21.15,20.51,21.15,27.78,31.82,31.82,31.88,31.88,31.88,31.88,32.58,32.58,31.82,23.33,23.33,23.08,23.08,22.0,21.33,30.3,30.43,30.43,30.43,30.43,30.43,30.3,31.06,31.16,31.16,30.56,30.56,30.43,38.89,39.25,39.25,39.25,39.25,38.89,38.89,39.08,39.25,39.25,39.78,39.78,40.1,40.1,39.78,39.78,39.78,39.78,39.78,39.78,39.78,39.78,39.78,40.1,39.25,39.25,39.25,39.25,39.25,39.25,40.1,40.1,40.1,40.1,40.1,40.1,39.78,40.1,40.1
39.58,40.1,39.78,39.78,39.78,39.78,39.78,39.78,39.78,39.78,39.78,39.25,38.89,38.89,39.25,39.44,39.25,39.25,39.25,39.25,39.78,39.25,39.78,34.72,31.88,31.88,31.88,31.88,31.82,31.82,32.54,32.54,32.54,31.82,31.82,31.82,31.16,31.06,30.3,30.43,31.82,31.82,32.54,32.54,32.54,32.54,31.82,31.82,31.82,31.82,31.82,31.82,31.16,30.43,30.43,30.43,31.16,31.16,31.88,31.88,31.16,31.75,25.0,22.67,23.08,22.44,22.0,22.44,22.44,23.08,23.08,22.44,22.44,22.0,21.33,21.33,21.79,22.44,21.79,21.33,21.79,21.79,21.79,22.44,23.08,22.44,22.44,22.44,22.44,23.08,22.44,23.33,24.0,23.33,18.52,15.63,15.63,15.63,15.63,15.63,15.63,15.15,15.63,15.63,15.63,15.63,15.63,15.15,15.1,15.63,15.59,14.81,14.81,14.81,14.81,14.35,14.76,14.81,14.35,14.35,14.81,14.41,14.41,14.35,14.41,14.04,13.33,13.01,13.1,13.1,13.01,13.01,13.01,13.01,13.01,13.33,13.33,13.33,13.33,13.01,12.02,12.4,12.02,12.02,12.12,12.02,11.74,11.85,12.12,11.35,10.99,10.99,10.99,10.99,10.99,10.99,10.76,10.76,10.76,10.99,10.99,11.11,10.68,10.81,11.26,10.81,10.81,11.26,11.26,10.81,11.11,11.11,11.11,11.11,11.26,10.81,10.53,10.26,10.32,9.69,10.28,10.26,10.26,10.88,11.7,12.5,19.05,55.86,56.31,56.31,56.14,55.7,55.7,56.1,56.33,56.09,55.83,55.88,56.04,55.87,55.7,55.7,55.84,55.7,55.7,55.42,55.61,55.61,55.61,55.61,55.4,55.4,55.4,55.4,55.35,55.5,55.45,55.45,55.3,55.3,55.3,55.45,55.45,55.45,55.45,55.45,55.45,55.45,55.45,55.45,55.45,55.3,55.3,55.3,55.3,55.3,55.3,55.3,55.45,55.3,55.3,55.45,55.45,55.61,55.67,55.73,55.63,56.0,56.1,56.15,55.91,56.17,55.97,56.29,56.03,55.81,56.04,55.7,55.69,55.67,55.67,55.45,55.4,55.4,54.94,55.04,55.04,55.04,55.04,55.04,55.04,55.04,55.04,55.04,54.9,54.9,55.04,54.9,55.0,55.04,55.21,55.35,55.35,55.35,55.5,55.56,55.67,55.56,55.83,55.77,55.63,55.95,55.8,55.95,56.04,55.95,55.82,56.01,56.01,56.21,56.17,55.97,55.9,55.8,55.8,55.81,55.98,28.33,13.24,11.48,11.59,11.35,11.59,11.85,11.74,12.12,11.85,11.85,11.85,11.85,11.85,11.74,11.85,11.85,11.85,11.85,12.12,11.85,12.12,11.74,11.85,11.85,11.59,11.35,11.11,11.35,12.5,12.4,12.5,12.4,12.4,12.79,12.5,12.4,12.79,12.7,12.4,12.79,12.7,12.7,12.79,13.1,13.1,13.33,14.04,14.04,14.04,13.96,14.35,14.76,14.76,13.6,13.68,13.33,13.33,12.7,12.79,12.79,12.7,12.79,12.7,14.04,14.04,13.33,13.33,13.68,13.68,14.04,14.47,13.96,14.41,14.41,14.41,14.41,14.41,14.81,14.35,14.35,14.76,14.81,14.81,14.41,14.04,14.04,14.04,14.04,14.04,14.04,14.04,14.04,14.04,14.47,14.47,14.47,14.04,14.41,14.04,14.1,15.15,15.1,15.15,15.15,15.15,15.15,14.65,15.15,15.15,14.65,14.71,14.71,14.71,15.2,14.71,15.15,15.15,14.71,14.71,15.15,15.15,15.15,15.63,22.0,21.79,21.79,21.79,21.79,21.15,20.51,20.51,20.51,21.33,27.08,31.06,31.06,31.16,32.58,31.88,31.16,31.82,31.82,24.0,23.33,23.33,23.08,22.44,21.33,21.33,29.71,30.43,30.43,30.43,30.43,29.71,30.3,30.56,31.06,31.82,31.16,31.06,31.16,38.69,38.89,39.25,39.58,39.25,39.25,39.25,39.25,39.78,39.25,39.78,40.1,40.1,39.78,39.78,39.78,39.78,39.78,39.78,39.78,39.78,39.78,39.78,39.25,39.25,39.78,39.25,39.25,39.25,39.78,39.78,40.1,40.1,40.1,40.1,40.1,40.1,40.1,40.1
40.1,40.1,39.78,39.78,39.78,39.78,39.78,39.78,39.78,39.78,39.78,39.78,39.78,38.89,39.25,39.58,39.25,39.25,39.25,39.25,39.78,39.25,39.25,39.78,34.09,32.61,31.16,31.16,32.58,31.82,32.54,32.54,32.54,32.54,31.82,31.82,31.16,31.16,31.16,31.16,31.16,31.82,32.54,32.54,32.54,31.82,31.82,31.82,31.82,31.06,31.82,31.82,30.43,30.43,29.71,29.71,31.16,31.06,31.75,31.88,31.82,31.75,31.82,31.06,31.06,30.3,25.0,24.67,23.33,22.44,23.08,22.67,22.67,22.67,22.67,22.44,22.44,22.44,22.67,22.44,22.0,22.44,22.44,23.08,23.08,22.44,22.44,22.44,23.33,23.33,23.33,23.33,23.08,22.22,17.26,15.63,15.63,15.63,15.63,15.63,15.63,15.63,15.63,15.63,15.63,15.63,15.63,15.63,15.63,16.13,16.13,15.24,15.24,14.41,14.81,14.81,14.81,14.41,14.41,13.96,14.81,14.76,14.41,14.35,13.68,13.33,13.33,13.01,13.01,13.01,13.01,12.92,13.25,13.33,13.33,13.33,13.25,13.33,13.33,12.3,12.02,12.02,12.02,12.02,12.02,12.02,12.02,12.02,11.74,10.76,10.76,10.54,10.54,10.99,10.87,10.99,10.76,10.76,11.11,10.99,11.11,11.11,10.53,10.81,11.26,10.81,11.26,11.26,11.26,11.26,10.81,11.11,11.11,11.11,11.26,10.96,10.68,9.92,10.51,10.26,10.46,10.88,11.11,11.46,13.01,15.28,33.33,56.14,56.14,56.41,56.06,56.52,56.16,56.12,55.85,56.01,55.91,56.04,55.84,55.63,55.84,55.84,55.84,55.56,55.61,55.67,55.61,55.61,55.61,55.56,55.24,55.5,55.5,55.35,55.35,55.45,55.3,55.3,55.3,55.3,55.45,55.45,55.45,55.45,55.3,55.3,55.3,55.3,55.3,55.45,55.45,55.3,55.3,55.3,55.3,55.3,55.45,55.45,55.3,55.3,55.3,55.4,55.4,55.56,55.67,55.62,55.7,55.78,55.95,56.15,55.91,55.83,55.74,56.08,55.91,55.97,56.04,55.7,55.69,55.67,55.67,55.45,55.45,55.35,55.13,55.04,54.9,55.0,55.0,55.0,55.0,55.0,55.0,55.0,54.9,54.9,54.9,54.9,54.9,54.9,55.16,55.45,55.5,55.35,55.45,55.56,55.61,55.56,55.56,55.69,55.56,55.63,55.77,55.63,55.71,55.95,56.19,55.99,55.91,55.91,56.11,55.95,56.06,55.9,55.93,55.81,55.83,55.98,55.56,14.37,11.59,11.59,11.85,11.59,11.85,11.74,11.85,11.85,11.85,11.85,12.12,11.74,11.85,11.85,11.85,11.85,12.12,11.85,12.12,11.74,11.85,11.59,11.35,11.11,11.22,11.96,12.12,12.4,12.4,12.4,12.4,12.79,12.4,12.7,12.79,12.7,12.79,13.01,12.7,12.79,12.7,13.1,13.41,13.33,14.41,14.35,14.41,14.35,14.41,14.35,13.68,13.33,13.68,13.25,12.7,12.7,12.79,12.79,12.79,12.79,12.4,13.68,13.68,13.33,13.33,13.68,14.41,13.96,13.96,13.96,14.41,14.41,14.41,14.41,14.04,14.41,14.41,14.04,14.41,14.41,14.41,14.41,14.04,14.04,14.04,14.04,14.04,14.04,14.04,14.04,14.04,14.47,14.47,14.86,14.81,14.41,14.81,14.41,15.15,15.1,14.65,14.65,15.63,15.63,15.1,15.15,15.15,14.76,14.76,14.71,14.71,14.76,15.15,15.15,15.15,14.71,14.71,15.15,15.15,15.15,15.63,21.79,21.79,21.79,22.44,21.79,21.79,21.15,21.79,22.44,22.0,22.67,23.08,22.44,24.0,29.71,29.71,25.69,23.33,23.33,23.33,23.33,22.67,21.79,21.79,21.15,21.79,24.0,30.3,29.86,30.43,29.86,30.3,30.43,30.56,31.16,31.16,30.56,31.16,31.06,31.82,38.1,39.08,39.78,39.25,39.78,39.58,39.44,39.25,39.78,39.78,39.78,39.78,39.78,39.78,39.78,39.78,39.78,39.78,39.78,39.78,39.78,39.78,39.25,39.78,39.25,39.78,40.1,39.78,39.78,39.78,40.1,40.1,40.1,39.78,40.1,40.1,40.1,40.1
39.58,40.1,39.78,39.78,39.78,39.78,39.78,39.78,39.78,39.78,39.78,39.78,40.1,40.1,40.1,39.58,39.78,39.78,39.78,39.58,39.58,39.58,39.78,39.78,39.78,38.51,31.82,31.16,31.82,31.82,31.82,31.82,31.82,31.82,32.54,31.82,31.82,31.82,31.82,31.75,31.75,32.54,32.54,32.54,31.82,31.82,31.82,31.82,31.82,30.3,30.43,30.43,30.43,29.86,30.3,30.43,30.43,31.06,31.16,31.75,31.82,31.75,31.06,31.06,31.06,31.82,31.82,31.88,26.39,22.44,22.44,22.44,23.08,23.08,23.08,22.44,23.08,23.08,22.67,22.67,22.0,22.0,22.44,23.08,23.08,23.08,23.08,23.08,23.33,23.33,23.33,23.33,23.08,19.75,15.63,15.1,15.63,15.59,15.59,15.59,15.59,15.63,15.63,15.63,15.15,15.63,15.63,15.63,15.63,16.13,15.24,15.24,14.81,14.04,14.04,14.41,14.41,14.81,14.76,14.76,14.81,14.76,13.68,13.25,13.33,13.33,13.33,13.75,12.92,13.41,13.33,13.25,13.33,13.33,13.68,13.33,13.33,13.33,12.92,12.02,12.4,12.4,12.4,12.02,12.02,12.4,12.02,12.02,10.99,10.76,10.99,10.88,10.76,10.87,10.87,10.87,10.76,10.76,11.11,10.99,11.11,10.81,10.81,11.11,11.11,11.11,11.26,11.26,11.26,11.26,11.26,11.11,11.11,11.11,11.11,10.68,10.16,10.08,10.26,10.06,10.46,11.11,11.11,12.22,13.24,56.31,55.86,56.1,56.06,56.44,56.06,56.29,56.29,56.09,55.85,55.83,55.97,56.04,55.84,55.7,55.7,55.7,55.7,55.73,55.61,55.67,55.61,55.61,55.56,55.56,55.24,55.45,55.35,55.35,55.45,55.45,55.45,55.45,55.3,55.3,55.45,55.3,55.3,55.3,55.45,55.45,55.45,55.45,55.45,55.45,55.45,55.45,55.45,55.45,55.45,55.45,55.45,55.45,55.3,55.3,55.3,55.45,55.3,55.61,55.67,55.8,55.7,55.56,55.79,56.04,56.04,56.01,55.82,55.88,56.13,56.04,56.13,55.7,55.69,55.61,55.61,55.61,55.35,55.5,55.35,55.04,55.0,55.0,55.0,55.0,54.9,54.9,54.9,54.9,54.9,54.9,54.9,54.9,55.0,55.04,55.26,55.45,55.35,55.45,55.35,55.35,55.56,55.56,55.56,55.73,55.56,55.63,55.77,55.7,55.94,56.1,56.1,56.04,55.91,55.91,55.91,55.82,55.95,55.86,56.16,55.8,55.95,55.98,55.98,14.37,12.4,12.4,11.74,11.85,11.85,11.85,11.85,11.85,11.85,11.74,11.85,11.85,11.85,11.85,11.74,12.12,11.85,11.85,11.85,11.85,11.59,11.59,11.35,11.46,11.22,12.22,12.4,12.4,12.5,12.4,12.4,12.79,12.7,12.4,12.79,12.79,13.01,12.7,12.79,12.79,12.7,13.41,14.04,14.04,14.41,14.35,14.35,14.35,13.33,13.68,13.68,13.68,13.01,12.7,12.79,12.79,12.5,12.5,12.79,12.7,12.4,13.33,13.75,13.68,13.68,14.1,14.41,13.96,14.04,13.96,14.41,14.41,14.41,14.41,14.04,14.41,14.41,14.04,14.41,14.41,14.41,14.41,13.96,13.96,14.04,14.04,14.04,14.41,14.41,14.41,14.41,14.04,14.04,15.15,15.15,15.15,15.15,15.15,15.15,15.15,14.65,14.65,15.15,15.15,14.65,14.71,14.71,15.2,15.2,14.71,14.71,14.76,15.15,15.15,14.71,14.71,14.71,14.71,14.71,14.71,15.59,21.79,22.44,22.44,22.44,21.33,21.33,21.79,22.0,22.44,22.67,23.33,23.33,23.08,23.08,23.08,24.0,23.33,24.0,23.08,23.33,23.33,22.44,21.79,21.15,21.79,21.79,23.33,29.86,29.86,29.71,31.06,31.06,30.56,30.56,31.06,31.16,30.43,30.43,30.43,30.43,31.16,35.42,39.78,39.78,39.78,39.78,39.25,38.89,39.25,39.78,39.78,39.78,39.78,39.78,39.78,39.78,39.78,39.78,39.78,39.78,39.78,39.78,39.25,39.25,39.25,39.78,40.1,40.1,40.1,40.1,40.1,40.1,40.1,39.78,39.78,40.1,40.1,40.1
39.58,40.1,39.78,39.78,39.78,39.78,39.78,39.78,39.78,39.78,39.78,40.1,40.1,40.1,40.1,39.78,39.58,39.58,39.58,39.78,39.78,39.78,39.58,39.78,39.78,39.78,35.42,31.82,31.16,31.16,31.16,31.82,31.82,31.16,32.54,32.54,31.82,31.82,31.82,31.82,31.82,31.82,32.54,32.54,31.82,31.82,31.75,31.06,31.06,30.43,30.43,31.06,30.3,30.3,30.3,30.56,30.43,31.16,30.43,31.06,30.43,31.06,31.06,30.43,30.43,31.82,31.88,29.71,24.0,23.08,22.44,23.08,23.08,23.08,23.08,23.08,22.67,23.08,22.44,22.44,22.0,22.44,23.08,22.44,23.08,23.08,23.08,23.08,23.33,22.67,22.67,23.08,22.44,20.37,18.45,19.05,16.67,15.59,15.59,15.59,15.59,15.59,15.63,15.63,15.63,15.63,15.63,15.63,16.13,16.11,14.76,14.41,14.41,14.04,14.47,14.76,14.76,15.24,15.24,14.76,14.76,14.81,13.68,13.01,13.33,13.33,13.25,13.33,13.25,13.33,13.68,13.33,13.68,13.33,13.33,13.01,13.33,13.33,12.6,12.4,12.4,12.02,12.3,12.3,12.4,12.4,11.48,11.48,10.99,10.99,10.99,10.99,10.99,10.99,10.99,10.85,11.24,10.71,10.85,10.85,10.83,11.11,11.11,11.11,11.11,11.11,11.11,10.81,11.26,10.53,10.53,11.11,11.11,11.11,11.11,10.68,9.92,10.08,10.46,10.67,10.88,11.7,11.96,12.22,37.5,55.86,55.7,56.2,56.44,56.06,56.25,56.09,56.17,55.95,55.93,55.83,55.97,55.94,55.7,55.7,55.63,55.82,55.62,55.61,55.73,55.61,55.61,55.61,55.56,55.67,55.45,55.45,55.45,55.45,55.45,55.45,55.3,55.3,55.45,55.45,55.45,55.3,55.3,55.3,55.45,55.45,55.45,55.45,55.45,55.3,55.45,55.45,55.45,55.45,55.45,55.45,55.3,55.3,55.3,55.45,55.4,55.4,55.3,55.61,55.61,55.62,55.7,55.77,55.78,56.19,56.04,55.9,56.06,56.04,56.04,55.79,55.87,55.77,55.68,55.61,55.79,55.61,55.35,55.5,55.35,55.21,55.26,55.12,55.12,55.16,55.16,55.26,55.26,55.26,55.26,55.26,55.26,55.26,55.16,55.16,55.15,55.45,55.45,55.45,55.45,55.45,55.4,55.56,55.56,55.56,55.56,55.49,55.7,55.49,55.63,56.0,56.1,55.95,55.97,56.15,55.82,55.82,55.95,56.06,55.88,55.78,55.93,55.69,55.83,43.06,12.92,12.7,11.74,11.74,11.85,12.12,12.12,11.85,11.85,11.85,11.74,11.74,11.74,11.85,11.74,12.12,11.74,11.48,11.85,11.85,11.59,11.35,11.22,11.46,11.81,12.59,12.4,12.79,12.79,12.4,12.79,12.7,12.7,12.7,13.01,12.7,12.79,12.79,12.79,12.79,12.7,13.01,13.68,13.6,14.35,14.04,13.6,14.04,13.68,13.68,13.33,13.33,12.7,12.79,12.7,12.79,12.5,12.5,12.4,12.5,13.01,13.33,13.75,13.68,14.04,14.47,14.04,13.96,14.41,14.41,14.41,14.41,14.41,14.41,14.04,14.41,14.41,14.04,14.41,14.41,14.04,14.41,14.04,14.41,14.41,14.41,14.41,14.41,14.41,14.41,14.04,14.47,14.47,15.15,14.65,14.65,15.15,15.15,15.15,15.63,15.63,15.15,15.1,15.15,14.71,15.15,14.65,15.2,15.15,14.71,14.71,14.71,14.71,14.71,14.76,14.71,14.71,14.71,15.15,15.15,15.59,22.44,23.08,22.44,22.44,21.79,22.44,23.08,22.44,22.44,22.44,23.08,23.33,22.67,22.67,23.72,24.0,23.33,23.33,23.33,23.08,21.79,21.79,21.15,20.99,21.79,21.15,22.44,29.86,29.71,30.43,30.43,31.16,30.43,31.16,30.56,31.06,30.43,30.43,30.43,31.06,31.16,35.42,39.78,39.78,39.78,39.78,39.25,38.89,39.44,39.25,39.78,39.78,39.78,39.78,39.78,39.78,39.78,39.78,39.78,39.78,39.78,40.1,39.78,39.78,40.1,40.1,40.1,40.1,40.1,40.1,40.1,40.1,39.78,39.78,39.78,39.78,40.1,40.1
40.1,39.78,39.78,39.78,39.78,39.78,39.78,39.78,39.78,39.78,40.1,40.1,40.1,40.1,39.78,39.58,39.58,39.58,39.78,39.58,39.58,39.78,39.78,39.78,40.1,40.1,38.1,31.82,31.82,31.82,31.82,31.82,31.82,31.82,31.82,31.82,31.82,31.82,31.82,31.82,31.82,31.82,32.54,32.54,32.54,31.75,31.16,31.06,30.3,30.43,30.43,30.43,31.06,31.06,30.43,30.56,30.43,30.43,30.43,30.43,30.43,31.16,31.16,30.56,31.06,31.82,32.58,27.08,22.44,22.44,22.67,23.33,22.67,23.08,23.08,23.08,23.08,23.08,22.0,22.44,21.33,22.0,22.44,22.44,23.08,23.08,23.08,23.33,23.33,23.33,23.08,22.44,22.44,22.0,23.08,23.08,16.67,15.59,15.59,15.59,15.59,15.63,15.63,15.63,15.63,15.59,16.13,15.59,15.59,15.59,15.15,14.04,14.04,14.41,14.81,15.24,15.24,14.76,14.81,14.81,14.35,14.35,13.68,13.01,13.01,13.01,13.75,13.33,13.25,13.33,13.68,13.68,13.33,12.7,12.7,12.4,12.12,12.7,12.02,12.02,12.12,11.85,12.02,12.4,12.4,11.59,10.99,10.99,10.99,10.99,10.99,10.87,10.87,10.87,10.85,10.96,11.26,10.81,10.81,11.26,10.81,11.11,11.11,11.11,11.11,11.11,11.11,10.81,11.11,10.42,10.53,10.53,11.11,11.26,11.26,10.42,10.32,10.08,10.26,11.11,11.11,11.96,12.5,37.04,55.86,56.02,55.98,56.44,55.9,56.12,56.29,56.09,56.06,55.83,55.99,56.06,56.13,55.63,55.63,55.63,55.63,55.62,55.56,55.56,55.73,55.56,55.56,55.67,55.56,55.5,55.5,55.61,55.61,55.34,55.45,55.45,55.3,55.3,55.3,55.3,55.3,55.3,55.3,55.45,55.45,55.3,55.3,55.45,55.45,55.45,55.45,55.45,55.45,55.45,55.45,55.45,55.45,55.45,55.3,55.3,55.3,55.3,55.3,55.61,55.61,55.56,55.68,55.56,55.56,55.78,55.78,55.71,55.86,55.78,55.78,55.78,55.63,55.7,55.67,55.67,55.61,55.5,55.29,55.4,55.35,55.45,55.4,55.3,55.3,55.45,55.45,55.45,55.45,55.45,55.45,55.45,55.45,55.45,55.3,55.45,55.45,55.45,55.45,55.3,55.45,55.45,55.35,55.45,55.5,55.5,55.67,55.49,55.56,55.49,55.7,55.7,56.02,56.19,56.19,55.97,55.91,55.91,56.01,55.76,56.06,55.88,56.03,55.81,55.98,55.83,13.16,13.1,11.85,11.74,11.85,11.85,11.85,11.85,11.85,11.85,11.74,11.74,11.74,11.85,11.74,12.12,11.74,11.48,11.59,11.85,11.35,11.46,11.35,11.46,12.06,12.88,12.79,12.79,12.79,12.7,12.7,12.7,12.7,12.7,12.7,12.79,12.79,12.79,12.79,13.1,12.7,13.01,13.01,13.68,13.6,13.68,13.33,13.68,13.68,13.33,13.25,13.01,12.7,12.7,12.79,12.5,12.4,12.5,12.4,12.12,13.75,14.04,13.68,13.96,13.96,14.41,14.41,14.04,14.41,14.81,14.41,14.04,14.04,14.04,14.41,14.41,14.41,14.41,14.41,14.81,14.41,14.81,14.41,14.41,14.81,14.41,14.41,14.41,14.04,14.04,14.47,14.1,14.1,13.96,14.65,15.15,15.15,15.15,15.15,15.63,15.15,15.1,15.15,14.71,14.71,15.2,14.65,14.71,14.71,14.71,14.71,14.65,15.15,15.15,15.2,14.76,14.71,15.15,15.15,15.15,16.11,22.67,22.67,23.08,23.08,22.44,23.08,23.08,23.08,23.08,23.08,23.33,23.33,23.33,23.33,24.0,24.0,23.33,23.33,22.67,23.08,20.67,21.15,20.99,20.99,21.15,20.51,22.44,30.43,29.71,30.43,30.43,30.56,30.43,30.43,30.43,31.06,30.56,30.56,30.56,31.06,31.16,35.42,39.78,39.78,39.78,39.78,39.44,38.89,38.89,39.25,40.1,40.1,39.78,39.78,39.78,39.78,39.78,39.78,39.78,39.78,39.78,40.1,40.1,40.1,39.78,40.1,40.1,39.78,39.78,39.78,39.78,39.78,39.78,39.78,39.78,40.1,40.1,40.1
39.78,39.78,39.78,39.78,39.78,39.78,39.78,39.78,39.78,39.78,40.1,40.1,40.1,40.1,39.78,39.58,39.58,39.58,39.58,40.1,40.1,40.1,40.1,40.1,40.1,40.1,38.1,32.54,32.54,32.54,32.54,32.54,32.54,31.82,31.82,32.54,32.54,32.54,31.82,32.54,32.54,32.54,32.54,31.82,31.82,31.75,30.3,30.3,31.06,31.06,30.3,31.06,31.16,30.43,30.43,30.3,30.43,30.56,31.16,31.82,31.16,30.43,30.43,30.43,31.82,31.82,32.58,27.08,22.67,22.44,22.67,23.08,23.08,22.44,23.08,22.44,21.79,22.44,21.79,21.79,22.0,23.08,23.08,23.08,23.08,23.08,23.08,23.33,23.08,22.44,23.08,23.08,23.08,22.67,23.33,23.33,16.67,15.63,15.63,15.63,15.63,15.63,15.63,15.59,15.59,15.59,16.13,15.59,15.59,15.59,15.15,14.04,14.41,14.35,14.76,14.81,14.81,14.35,14.35,14.81,14.81,14.41,13.33,13.01,13.01,13.33,13.01,13.01,13.01,13.41,13.33,13.33,12.3,12.02,12.12,12.12,11.85,12.12,12.4,12.12,12.12,11.74,10.99,11.48,11.35,10.99,10.99,10.99,10.99,10.99,10.99,10.99,10.98,11.11,10.81,10.81,11.26,11.26,10.81,10.81,10.81,11.11,11.11,11.11,11.11,11.27,11.31,11.31,11.11,10.12,11.11,10.92,10.92,10.22,10.48,10.16,9.92,10.33,10.26,11.11,11.59,12.5,12.22,54.32,56.14,55.95,56.59,56.38,56.09,56.29,56.29,56.03,56.11,55.83,55.9,56.13,56.04,56.1,55.63,55.77,55.77,55.62,55.61,55.73,55.61,55.73,55.56,55.67,55.67,55.67,55.67,55.56,55.56,55.45,55.35,55.3,55.35,55.3,55.3,55.3,55.3,55.3,55.3,55.3,55.3,55.3,55.3,55.3,55.3,55.3,55.3,55.3,55.3,55.3,55.3,55.3,55.3,55.3,55.3,55.3,55.3,55.45,55.45,55.61,55.67,55.5,55.56,55.5,55.62,55.63,55.63,55.7,55.84,55.7,55.7,55.75,55.86,55.68,55.67,55.61,55.5,55.35,55.4,55.5,55.35,55.35,55.4,55.3,55.3,55.45,55.45,55.45,55.45,55.45,55.45,55.45,55.45,55.45,55.3,55.45,55.45,55.45,55.45,55.3,55.3,55.45,55.45,55.45,55.5,55.5,55.5,55.61,55.49,55.7,55.7,55.63,55.79,56.1,56.1,55.95,56.06,55.82,55.82,55.76,56.06,55.86,55.88,55.95,55.98,55.83,13.25,12.4,11.85,10.99,10.99,10.99,11.59,11.59,11.59,11.96,11.85,11.74,11.74,11.85,11.74,11.85,12.12,11.85,11.59,11.85,11.23,11.46,11.46,11.11,11.96,12.7,12.7,12.7,12.7,12.7,12.7,12.79,12.79,12.7,12.7,12.79,12.7,13.01,13.01,13.01,13.01,13.01,13.33,13.33,13.33,13.33,13.33,13.68,13.68,13.33,13.33,12.7,12.79,12.4,12.79,12.79,12.79,12.7,12.12,12.12,13.68,14.04,14.04,13.96,13.96,14.41,14.41,14.41,14.81,14.81,14.41,14.41,14.41,14.35,14.81,14.81,14.81,14.81,14.81,14.81,14.76,14.76,14.76,14.81,14.81,14.04,14.81,14.04,14.47,14.47,13.6,13.6,14.04,14.04,14.65,15.15,15.15,15.15,15.15,15.63,15.15,14.65,14.71,14.71,14.71,14.71,14.76,14.71,14.71,15.15,15.15,15.15,15.15,15.15,15.15,15.15,15.15,15.15,15.15,15.15,16.13,22.67,22.67,22.67,23.33,23.33,23.33,23.33,22.67,22.67,23.33,24.0,24.0,22.67,16.67,16.67,16.67,17.26,16.67,16.11,21.33,20.51,20.99,20.51,20.99,21.6,21.33,28.26,30.3,30.3,30.43,30.43,31.06,30.43,31.16,30.43,31.16,31.16,31.16,31.16,31.16,31.16,35.42,39.78,39.78,39.78,39.25,39.25,38.89,38.51,39.44,39.25,39.78,39.78,39.78,39.78,39.78,39.78,39.78,39.78,39.78,39.78,39.78,39.78,39.78,39.78,39.78,39.78,39.78,39.78,39.78,39.78,39.78,39.78,39.78,40.1,40.1,40.1,39.78
39.78,39.78,39.78,39.78,39.78,39.78,39.78,39.78,39.78,39.78,40.1,40.1,40.1,40.1,39.78,39.78,39.78,39.78,40.1,40.1,40.1,40.1,40.1,40.1,40.1,40.1,38.69,32.54,32.54,32.54,32.54,32.54,32.54,32.54,32.54,31.82,31.82,32.54,31.82,32.54,32.54,32.54,32.54,31.82,31.82,31.06,30.3,30.3,30.43,30.43,30.3,31.16,30.43,30.43,30.43,29.71,31.16,31.16,31.82,31.82,31.82,30.43,29.71,29.86,30.43,30.43,32.58,27.08,22.67,22.67,23.08,23.08,22.67,22.44,21.79,21.79,21.79,20.51,21.15,21.79,22.67,23.08,23.08,23.08,23.08,23.08,23.08,23.08,23.08,22.44,23.08,23.33,23.33,23.33,23.33,23.33,16.67,15.15,15.05,15.63,15.63,15.63,15.59,15.59,15.59,16.13,16.11,15.59,15.59,15.59,15.59,14.35,14.81,14.76,14.76,14.81,14.76,14.81,14.41,14.41,14.41,14.41,13.33,13.01,13.01,13.33,12.7,13.01,13.01,13.01,13.01,13.01,12.02,12.12,11.85,11.85,11.74,11.74,12.12,12.12,12.12,12.12,10.99,10.99,11.11,10.99,10.99,10.99,10.99,10.87,11.11,10.99,10.98,10.81,11.11,11.11,11.26,11.11,11.26,11.11,11.11,11.11,11.11,11.11,11.11,10.78,10.9,10.9,10.9,10.12,10.71,10.49,10.12,10.34,9.91,10.08,10.16,10.26,10.26,11.11,11.59,12.7,12.6,54.17,55.98,56.44,56.44,56.25,56.29,56.29,56.6,55.83,55.74,56.01,56.06,56.04,56.19,56.19,55.77,55.63,55.84,55.62,55.61,55.61,55.56,55.56,55.67,55.67,55.5,55.5,55.5,55.67,55.67,55.56,55.35,55.35,55.35,55.3,55.3,55.3,55.3,55.3,55.3,55.3,55.3,55.3,55.3,55.3,55.3,55.3,55.3,55.3,55.3,55.3,55.3,55.3,55.3,55.3,55.3,55.45,55.45,55.45,55.5,55.67,55.67,55.56,55.56,55.73,55.75,55.63,55.63,55.63,55.63,55.7,55.7,55.74,55.61,55.67,55.67,55.61,55.45,55.35,55.35,55.35,55.35,55.45,55.45,55.3,55.3,55.45,55.45,55.45,55.45,55.45,55.45,55.3,55.3,55.3,55.3,55.3,55.3,55.3,55.35,55.3,55.4,55.4,55.4,55.5,55.5,55.5,55.61,55.61,55.56,55.63,55.63,55.56,55.94,55.87,56.1,55.87,55.88,55.99,55.82,56.06,56.06,56.06,55.77,55.95,55.98,55.83,13.25,12.4,11.59,11.11,10.54,10.54,11.59,11.59,11.59,11.85,11.85,11.74,11.74,11.85,12.12,11.74,11.85,11.85,11.59,11.85,11.23,11.11,11.11,11.46,12.12,12.7,12.7,13.01,12.7,12.7,12.7,12.7,12.79,12.7,12.7,13.1,13.01,13.33,13.33,13.01,13.01,13.01,13.01,13.33,13.33,13.33,13.25,13.68,13.33,13.01,13.1,12.4,12.4,12.5,12.5,12.7,12.79,12.79,12.12,12.12,14.41,14.41,14.41,14.41,14.04,14.41,13.96,14.41,14.81,14.81,14.41,14.81,14.35,14.35,14.35,14.41,14.81,14.81,14.41,14.81,14.76,14.76,14.81,14.35,14.81,14.41,13.96,14.1,14.04,13.68,13.6,14.04,14.04,14.04,14.65,15.15,14.65,14.65,15.15,15.63,15.15,14.65,14.71,14.71,14.76,14.71,14.71,14.71,14.76,15.2,15.2,14.71,15.15,15.15,15.15,15.15,15.15,15.66,15.66,15.15,16.13,23.08,23.08,22.67,23.33,23.33,22.67,23.08,22.84,22.84,23.08,23.08,23.08,22.44,15.59,15.59,15.59,15.59,15.15,14.22,21.15,20.99,20.99,20.51,21.15,21.6,21.79,30.3,30.43,30.43,30.3,30.3,31.06,31.16,31.16,30.43,31.16,31.06,31.06,31.16,31.82,31.82,35.42,39.78,39.78,39.25,39.44,38.71,38.51,38.89,39.25,39.44,39.78,39.78,39.78,39.78,39.78,39.78,39.78,39.78,39.78,39.78,39.78,39.78,39.78,40.1,39.78,39.78,39.78,39.78,39.78,40.1,39.78,39.78,40.1,40.1,39.78,39.78,39.25
39.78,39.78,39.78,39.78,39.78,39.78,39.78,40.1,40.1,40.1,40.1,40.1,40.1,40.1,40.1,40.1,40.1,40.1,40.1,40.1,40.1,40.1,40.1,40.1,40.1,40.1,38.1,31.82,32.54,32.54,32.54,32.54,32.54,32.54,31.82,32.58,32.54,31.82,31.82,32.54,31.82,32.54,31.82,31.82,31.16,31.16,30.3,29.71,31.06,31.88,31.88,33.33,31.88,31.88,31.16,29.86,31.16,31.82,30.43,31.06,30.43,30.43,29.71,29.71,29.71,29.71,31.06,31.82,26.67,23.33,23.08,22.44,22.0,22.67,22.67,27.08,30.43,23.33,22.44,22.67,22.44,22.44,22.67,22.44,22.44,22.44,22.44,22.44,23.08,22.67,23.33,22.67,22.67,22.67,22.67,23.33,16.67,15.15,14.65,15.59,15.63,15.63,15.59,15.59,16.11,15.59,15.59,15.63,15.59,15.59,15.59,14.81,14.81,14.76,14.35,14.41,14.81,14.41,14.41,14.81,14.81,14.41,14.41,13.68,13.33,13.33,12.7,12.7,12.79,12.79,12.7,12.4,11.74,11.74,11.85,11.85,11.74,11.74,11.85,12.02,12.02,11.48,10.99,10.99,10.76,10.99,10.99,10.99,10.99,11.11,11.26,10.81,10.81,10.81,11.26,11.11,11.26,11.11,11.11,10.81,11.11,11.11,11.11,11.26,10.95,11.29,10.9,10.9,11.11,10.71,10.71,10.71,10.34,10.0,10.09,10.2,10.26,10.06,11.11,11.35,11.59,42.42,55.86,55.86,56.06,56.44,56.03,56.09,56.17,56.17,56.01,56.01,56.01,56.15,55.95,55.95,55.95,56.02,55.95,55.87,55.94,55.63,55.63,55.49,55.61,55.56,55.5,55.61,55.5,55.67,55.5,55.61,55.67,55.61,55.5,55.5,55.61,55.61,55.5,55.5,55.45,55.4,55.4,55.35,55.4,55.4,55.4,55.4,55.4,55.4,55.4,55.4,55.4,55.4,55.4,55.4,55.4,55.4,55.5,55.5,55.4,55.35,55.45,55.61,55.61,55.61,55.61,55.61,55.61,55.61,55.73,55.61,55.61,55.61,55.67,55.67,55.67,55.61,55.61,55.67,55.56,55.35,55.35,55.45,55.35,55.35,55.45,55.3,55.45,55.3,55.3,55.3,55.3,55.3,55.3,55.3,55.45,55.3,55.3,55.3,55.3,55.3,55.3,55.4,55.4,55.4,55.3,55.56,55.61,55.44,55.61,55.61,55.74,55.63,55.63,55.63,55.79,56.02,56.02,56.02,55.88,55.99,55.99,55.82,56.06,56.06,56.09,56.2,55.69,55.42,13.16,12.7,12.4,11.85,11.48,10.76,11.23,11.59,11.85,11.96,11.85,11.85,11.85,11.85,12.02,12.12,11.59,11.85,11.59,11.35,11.7,11.35,11.46,11.59,12.12,12.7,12.7,12.7,12.7,13.01,12.7,13.01,13.01,13.01,12.7,13.01,13.01,13.01,13.01,13.33,13.33,13.33,13.33,13.33,13.25,13.68,13.25,13.01,13.01,12.79,12.79,12.4,12.5,12.79,12.7,13.01,12.7,12.7,12.5,12.4,14.04,14.35,14.41,14.41,14.04,14.04,14.04,14.41,14.81,14.81,14.41,14.81,14.35,14.35,14.35,14.41,14.41,14.41,14.41,14.76,14.76,15.2,15.2,14.35,14.81,14.04,14.1,13.68,13.68,13.33,13.75,14.1,14.04,14.41,14.65,14.65,14.65,14.65,15.15,14.65,14.65,15.15,15.15,15.15,15.15,15.15,14.71,14.71,14.71,15.15,15.15,14.71,15.15,15.15,15.15,15.15,15.15,15.15,15.15,15.15,16.11,23.08,22.44,21.79,17.26,15.1,15.1,15.59,16.11,16.13,15.59,15.59,15.59,15.59,16.13,16.13,15.59,15.63,14.71,14.29,20.67,21.15,20.99,21.6,21.79,21.79,21.79,29.17,30.43,30.56,30.56,31.06,31.82,31.82,31.06,30.43,31.16,31.82,31.16,31.82,31.16,31.82,31.82,36.54,39.44,39.25,39.44,38.89,38.51,39.08,39.44,39.44,39.78,39.58,39.78,39.78,40.1,40.1,39.58,39.78,39.78,39.78,39.78,39.78,39.78,40.1,39.78,39.78,39.78,39.78,40.1,39.78,39.25,39.78,39.78,39.78,39.25,39.25,39.25
39.44,39.78,39.78,39.78,39.78,39.78,39.78,40.1,40.1,40.1,40.1,40.1,40.1,40.1,40.1,40.1,39.58,40.1,40.1,40.1,40.1,40.1,40.1,40.1,40.1,40.1,38.1,31.82,31.82,31.82,31.82,31.82,31.82,31.82,31.82,31.82,31.82,32.54,32.54,32.54,32.54,32.54,31.16,31.75,30.56,29.86,29.71,29.71,36.54,38.89,38.89,38.89,38.89,39.78,37.18,31.82,31.16,31.06,30.43,30.43,30.43,30.56,30.56,30.56,30.43,30.43,30.43,30.43,29.71,24.0,21.33,21.79,20.99,24.0,29.71,30.43,31.88,31.06,22.44,22.0,21.79,22.44,22.44,22.44,22.0,22.44,22.44,23.08,23.33,24.0,23.33,23.33,23.33,23.08,23.08,23.33,16.67,15.63,15.1,15.63,15.59,16.13,16.11,15.63,15.59,15.63,15.63,15.59,15.59,16.13,15.59,14.81,14.76,14.76,14.41,14.81,14.81,14.81,14.41,14.41,14.41,14.35,14.35,13.68,13.33,13.01,13.01,13.01,12.79,12.7,13.01,12.7,12.79,11.74,12.12,12.12,11.85,11.85,12.12,11.85,11.85,11.59,11.35,10.99,10.99,11.11,10.99,11.11,10.99,11.11,11.11,11.11,10.81,10.81,11.26,11.11,10.68,10.53,11.11,11.11,11.11,11.11,11.11,10.81,10.9,10.9,10.9,10.49,11.33,10.71,10.12,10.71,10.0,10.0,9.92,10.2,10.26,10.06,11.46,12.5,13.64,51.11,55.86,55.86,56.06,56.38,55.9,56.09,56.03,56.01,56.01,55.91,55.91,56.25,55.88,55.88,55.8,55.8,55.88,56.04,56.04,55.86,55.84,55.77,55.61,55.73,55.5,55.5,55.5,55.5,55.67,55.67,55.67,55.67,55.67,55.67,55.67,55.5,55.5,55.5,55.67,55.67,55.67,55.5,55.67,55.67,55.67,55.67,55.67,55.67,55.67,55.67,55.67,55.67,55.5,55.5,55.67,55.67,55.67,55.5,55.56,55.39,55.35,55.35,55.4,55.56,55.56,55.61,55.56,55.67,55.56,55.61,55.61,55.61,55.61,55.61,55.61,55.61,55.5,55.4,55.4,55.45,55.45,55.45,55.35,55.35,55.3,55.45,55.3,55.3,55.3,55.3,55.3,55.3,55.3,55.3,55.45,55.3,55.3,55.3,55.3,55.3,55.3,55.4,55.4,55.4,55.5,55.5,55.44,55.61,55.67,55.63,55.63,55.63,55.56,55.63,55.79,55.87,55.79,56.1,55.97,55.73,55.99,55.91,55.95,56.06,55.77,55.67,55.67,55.56,13.6,12.7,12.4,10.99,10.54,10.76,10.54,11.96,11.85,11.74,11.74,11.85,12.02,12.02,12.02,11.11,11.11,11.85,11.85,11.35,11.35,11.46,11.35,11.35,11.74,12.7,12.7,12.7,12.7,13.01,13.33,13.01,13.01,13.1,13.01,12.7,13.01,13.01,13.01,13.01,13.33,13.75,13.33,13.33,13.68,13.68,13.33,11.85,12.7,12.79,12.79,12.7,12.7,13.1,12.7,13.1,13.01,12.7,12.4,12.7,13.33,13.33,13.01,13.01,13.68,14.1,14.1,14.04,14.41,14.81,14.41,14.41,14.76,14.35,14.35,14.41,14.41,14.41,14.81,14.76,15.24,15.2,14.76,14.35,14.04,13.68,13.25,13.33,13.68,14.1,14.04,14.47,14.41,14.04,15.15,14.65,15.15,15.15,15.1,15.1,15.15,15.15,15.15,14.71,14.71,14.71,14.71,14.71,14.65,14.65,14.76,14.71,15.15,15.15,15.15,15.15,15.15,15.15,15.63,15.15,16.11,22.67,19.75,15.59,15.63,15.59,16.11,16.11,16.11,16.13,16.13,16.13,16.13,16.13,15.59,15.63,15.15,14.71,14.29,13.89,20.99,20.51,20.99,21.15,21.79,21.33,21.33,23.33,31.16,30.56,30.56,31.06,31.75,31.82,31.16,30.56,30.43,31.16,31.16,31.16,31.82,31.82,31.16,36.0,39.25,39.25,39.08,39.08,38.51,38.89,38.89,39.78,39.78,39.78,40.1,40.1,40.1,40.1,39.58,40.1,39.78,39.78,39.78,39.78,39.78,39.78,39.78,40.1,40.1,39.78,39.78,39.25,39.78,39.78,39.25,39.25,39.25,39.25,39.25
39.44,39.78,39.25,39.78,39.78,39.78,39.78,40.1,40.1,40.1,40.1,40.1,40.1,40.1,40.1,40.1,39.58,40.1,40.1,40.1,40.1,40.1,40.1,40.1,40.1,39.78,36.0,32.54,31.82,31.82,31.82,31.82,31.82,31.82,31.82,32.54,32.54,32.54,32.54,31.82,32.54,31.82,31.16,30.43,30.3,30.43,34.78,36.0,37.04,37.04,37.18,37.18,36.54,37.5,35.42,32.54,31.82,31.88,31.06,30.43,31.16,31.16,30.43,30.56,30.43,30.43,30.43,30.43,30.43,26.39,25.0,24.67,24.67,27.78,31.16,28.99,27.78,28.47,22.44,23.08,23.08,23.08,23.08,22.44,22.44,23.08,23.33,22.67,23.33,23.33,23.33,23.33,23.08,23.33,23.08,23.33,16.67,15.63,15.1,15.1,15.59,16.13,15.63,15.1,15.63,15.63,15.63,15.63,15.63,15.59,15.15,14.76,14.76,14.76,14.41,14.81,14.81,14.81,14.81,14.81,14.35,14.35,14.35,13.33,13.33,13.01,13.01,13.01,13.1,13.1,13.01,12.7,13.1,11.74,11.85,11.59,11.96,11.85,11.74,12.12,11.85,10.99,10.99,10.76,11.11,10.87,11.11,10.85,11.11,10.96,11.26,11.11,10.95,10.94,11.11,10.94,10.78,10.29,10.94,10.94,10.94,10.94,10.61,10.61,10.9,10.9,10.9,10.49,10.9,11.11,10.12,9.9,9.72,10.09,9.85,10.33,10.06,10.46,11.46,12.5,25.76,55.86,56.31,56.02,55.93,55.97,56.09,56.09,55.93,56.01,56.01,56.08,55.91,55.91,55.91,55.82,55.73,55.99,55.82,55.81,56.19,55.94,55.63,55.77,55.61,55.67,55.61,55.5,55.61,55.5,55.5,55.67,55.61,55.61,55.61,55.67,55.67,55.5,55.5,55.5,55.67,55.67,55.67,55.5,55.67,55.67,55.67,55.67,55.67,55.67,55.67,55.67,55.67,55.5,55.5,55.5,55.61,55.67,55.56,55.56,55.56,55.39,55.35,55.45,55.45,55.45,55.56,55.73,55.56,55.67,55.56,55.73,55.61,55.61,55.61,55.61,55.56,55.56,55.61,55.5,55.4,55.5,55.45,55.45,55.3,55.35,55.3,55.45,55.45,55.45,55.45,55.45,55.45,55.45,55.45,55.45,55.3,55.3,55.3,55.3,55.3,55.3,55.4,55.45,55.45,55.45,55.5,55.5,55.61,55.61,55.67,55.63,55.63,55.63,55.63,55.63,55.79,55.87,55.79,55.88,55.99,55.73,55.99,55.95,55.85,55.95,55.97,55.9,55.9,55.56,13.6,13.1,12.4,11.11,10.99,10.76,10.54,11.23,11.59,11.59,11.85,12.12,11.74,11.74,11.23,10.88,10.88,11.35,11.35,11.35,11.35,11.35,11.11,11.11,11.74,12.7,12.7,12.7,13.33,13.68,13.68,13.01,13.33,13.01,12.7,12.7,13.01,13.33,13.33,13.33,13.33,13.25,13.68,13.33,13.33,13.01,12.4,11.85,12.7,12.7,13.01,13.01,13.1,13.1,13.1,12.7,13.01,12.7,12.7,13.01,13.33,13.33,13.33,13.33,13.33,13.33,13.41,14.04,14.04,14.41,14.41,14.41,14.76,14.41,14.41,14.41,14.41,14.41,14.81,14.35,14.81,15.24,13.96,13.68,13.41,13.68,13.75,13.33,13.75,14.1,14.04,14.04,14.04,14.04,15.15,14.65,15.15,15.1,15.1,15.63,15.15,15.15,15.15,14.71,14.71,14.71,14.71,14.76,15.15,15.15,14.71,14.71,15.15,15.15,15.15,15.15,15.15,15.15,15.15,15.15,16.11,22.44,17.28,15.59,15.59,15.59,16.11,16.11,16.67,16.67,16.11,16.11,16.13,15.59,15.63,15.63,14.65,14.71,13.81,14.29,21.15,21.79,21.79,21.79,21.79,22.0,22.0,23.33,30.43,30.43,30.43,31.06,31.75,31.82,31.16,30.43,31.16,30.43,31.16,31.16,31.82,31.16,30.43,35.9,38.89,38.89,38.89,39.08,38.89,39.25,39.78,39.58,39.58,40.1,40.1,40.1,40.1,40.1,40.1,40.1,40.1,40.1,40.1,39.78,39.78,39.78,40.1,40.1,40.1,39.78,39.25,39.25,39.25,39.25,39.25,39.25,39.25,39.25,39.25
40.69,39.44,38.89,39.44,39.78,39.78,39.78,39.78,40.1,40.1,40.1,40.1,40.1,40.1,40.1,39.78,39.58,39.58,40.1,39.58,39.58,40.1,40.1,40.1,40.1,38.89,32.54,32.54,31.82,31.82,31.82,31.82,32.54,32.54,31.82,32.54,32.54,31.82,31.82,31.82,31.16,31.16,30.43,29.86,30.43,35.9,38.51,36.42,34.78,32.61,31.82,31.82,32.58,31.88,32.58,32.58,32.58,32.58,32.58,32.58,32.58,31.82,31.16,30.43,30.43,30.43,30.3,30.43,30.43,31.82,31.82,31.06,30.43,29.86,27.08,25.33,23.33,23.08,23.08,23.08,23.08,23.08,23.08,23.08,23.08,22.67,24.0,24.0,23.33,23.33,23.33,23.33,23.33,21.6,18.52,18.45,16.13,15.63,15.59,15.59,15.63,15.63,15.63,14.65,15.63,15.63,15.63,15.1,15.1,15.63,14.76,14.81,14.41,14.76,14.76,14.81,14.76,14.81,14.81,14.81,14.81,14.41,14.41,13.33,13.33,13.33,13.01,13.01,13.01,13.33,13.01,13.33,13.01,11.74,11.59,11.59,11.96,11.85,12.02,12.12,11.96,11.11,10.67,10.54,10.67,10.87,10.96,10.81,11.11,11.11,11.11,11.11,10.75,10.49,10.12,10.34,10.34,10.0,10.12,10.71,10.9,11.11,10.49,10.9,10.9,10.49,10.9,11.33,10.9,11.11,10.0,9.9,9.72,9.65,10.07,10.46,10.67,11.11,12.86,37.04,52.63,56.31,55.86,55.83,56.3,55.97,56.09,55.97,55.75,55.91,55.91,55.91,55.82,56.08,55.82,55.73,55.73,55.99,55.82,55.91,56.22,55.94,55.63,55.63,55.61,55.56,55.67,55.5,55.5,55.5,55.5,55.61,55.5,55.5,55.61,55.67,55.67,55.67,55.5,55.5,55.67,55.67,55.67,55.5,55.67,55.67,55.67,55.5,55.5,55.5,55.5,55.5,55.5,55.5,55.5,55.44,55.61,55.67,55.67,55.56,55.5,55.56,55.35,55.45,55.35,55.29,55.39,55.5,55.44,55.56,55.56,55.67,55.56,55.61,55.61,55.56,55.56,55.45,55.56,55.35,55.35,55.45,55.45,55.45,55.3,55.45,55.3,55.45,55.3,55.3,55.3,55.3,55.3,55.3,55.3,55.3,55.3,55.3,55.3,55.3,55.3,55.3,55.45,55.45,55.56,55.56,55.45,55.61,55.61,55.61,55.67,55.63,55.56,55.63,55.56,55.56,55.94,55.79,55.79,56.04,55.73,55.9,55.99,55.85,55.95,55.86,56.0,55.8,55.81,55.83,13.51,13.01,12.7,11.85,12.22,11.11,10.54,10.88,10.88,10.76,11.23,11.59,10.99,10.99,10.88,10.54,10.54,10.46,10.88,11.11,11.46,11.22,11.46,11.46,12.12,12.7,12.7,13.01,13.33,13.33,13.33,13.41,13.01,12.7,12.7,13.01,13.33,13.33,12.7,13.01,13.01,12.92,12.7,12.4,12.7,12.12,11.85,11.85,12.4,12.4,12.4,12.4,12.5,12.7,13.01,12.7,13.1,12.7,13.01,13.33,13.01,13.25,13.33,13.33,13.01,12.79,12.4,13.01,14.04,14.04,14.04,14.35,14.76,14.35,14.41,14.41,14.41,14.41,14.41,14.35,14.35,14.35,13.68,12.5,12.5,13.41,13.75,13.75,13.75,13.68,14.04,14.04,14.47,14.04,14.81,15.2,15.1,15.63,15.63,15.63,15.15,14.65,15.15,15.15,14.71,14.71,14.71,14.76,14.71,14.71,14.71,14.71,14.71,15.15,15.15,15.15,15.15,15.15,14.71,17.86,19.75,20.99,15.1,15.63,15.63,15.59,16.13,16.13,16.67,16.67,16.11,16.11,15.2,15.2,14.76,15.15,14.71,14.71,14.29,14.29,17.31,21.79,21.33,22.0,21.79,21.33,21.79,23.33,30.43,30.3,30.43,30.43,30.43,30.43,30.43,30.43,30.43,31.16,31.16,31.06,31.06,31.16,33.33,37.5,39.08,38.33,38.89,38.89,39.44,39.78,39.78,39.78,40.1,40.1,40.1,40.1,40.1,40.1,39.78,39.78,39.25,39.25,40.1,39.78,39.78,39.78,40.1,40.1,40.1,39.58,39.78,39.25,39.78,39.78,39.25,39.25,39.78,39.25,39.25
42.68,42.54,42.11,42.54,39.08,39.25,39.25,39.78,39.78,39.58,40.1,40.1,40.1,40.1,40.1,40.1,40.1,40.1,39.78,39.78,39.78,40.1,40.1,40.1,40.1,38.89,32.54,32.54,32.54,32.54,31.82,32.54,32.54,32.54,32.54,31.82,31.82,31.82,31.16,31.82,31.16,30.43,30.3,34.72,37.18,38.33,34.72,32.58,32.61,32.61,32.58,32.58,32.58,32.58,32.58,32.58,32.58,32.58,32.58,32.58,31.88,31.88,31.16,31.06,31.06,31.75,30.3,30.43,30.43,27.08,25.33,25.0,25.69,25.33,23.72,23.33,23.08,23.08,22.44,22.44,23.08,23.08,23.08,23.08,23.08,23.33,24.0,23.33,23.33,23.33,23.33,22.67,17.86,16.67,15.59,15.63,15.1,16.13,16.13,16.13,15.15,15.15,15.15,14.65,15.1,15.63,15.63,15.1,15.1,15.63,14.29,14.35,14.35,14.41,14.76,14.76,14.81,14.81,14.81,14.81,14.41,14.41,14.41,13.68,13.01,13.01,13.33,13.68,13.25,13.33,13.33,13.33,13.01,12.4,12.12,11.74,11.74,11.85,12.12,11.85,11.85,11.59,10.88,10.54,10.67,10.67,10.23,10.68,10.81,10.53,10.81,10.65,10.12,10.34,10.34,10.0,10.0,10.0,10.22,10.71,10.12,10.49,10.49,10.49,11.54,11.33,10.9,10.9,10.49,10.34,9.68,9.38,9.83,10.0,10.07,10.67,11.11,12.22,14.74,55.86,55.7,56.31,56.02,56.2,56.3,55.97,56.09,55.97,55.76,55.85,55.91,55.82,55.82,55.82,55.99,55.73,55.73,55.82,55.82,55.74,55.99,56.19,56.02,55.63,55.69,55.56,55.5,55.5,55.61,55.5,55.5,55.61,55.5,55.67,55.67,55.61,55.5,55.67,55.5,55.61,55.67,55.5,55.61,55.61,55.61,55.5,55.5,55.5,55.5,55.61,55.61,55.61,55.5,55.5,55.61,55.61,55.67,55.61,55.67,55.56,55.5,55.5,55.5,55.5,55.5,55.67,55.5,55.5,55.44,55.67,55.67,55.67,55.56,55.56,55.39,55.5,55.45,55.4,55.61,55.56,55.34,55.45,55.3,55.3,55.3,55.3,55.3,55.3,55.3,55.3,55.3,55.3,55.3,55.3,55.3,55.3,55.3,55.3,55.3,55.3,55.3,55.3,55.45,55.35,55.61,55.61,55.44,55.5,55.61,55.61,55.67,55.63,55.63,55.63,55.84,55.78,56.02,56.02,55.97,55.9,55.73,55.9,55.9,55.95,55.95,55.86,55.9,55.68,56.1,55.83,13.89,13.33,12.7,11.74,12.12,11.35,10.76,10.88,10.54,10.54,10.99,10.99,10.76,10.76,10.88,10.54,10.76,11.11,11.11,11.11,11.22,11.22,11.35,11.23,12.4,12.7,12.7,13.33,12.7,12.4,12.4,12.5,12.7,12.79,13.1,13.75,13.33,12.7,12.4,12.4,12.4,12.4,12.12,12.12,12.12,12.12,11.85,11.74,11.74,12.12,11.85,11.74,11.59,12.02,12.4,12.79,13.01,13.01,13.01,13.33,13.33,13.33,13.01,13.33,12.7,12.79,12.4,12.7,13.01,13.33,14.04,14.41,14.35,14.41,14.41,14.41,14.41,14.41,14.41,14.41,14.35,14.41,13.6,13.25,13.41,13.75,13.75,13.75,14.04,14.1,14.47,14.47,14.47,14.41,14.41,14.04,14.35,14.81,14.81,15.15,15.1,14.65,15.63,15.15,14.71,14.71,14.71,14.71,14.71,14.71,14.71,14.71,18.52,19.64,20.24,19.87,19.87,17.24,17.9,21.79,22.67,21.79,19.75,20.37,17.22,15.63,16.13,16.13,16.11,16.11,15.1,15.24,14.35,14.81,14.04,14.71,14.71,14.71,14.71,14.71,15.59,21.79,21.79,21.33,21.79,21.79,21.79,22.44,24.0,27.54,30.43,30.43,30.43,30.43,31.06,30.56,30.43,31.16,31.06,30.56,30.56,31.06,35.42,39.25,38.89,38.89,39.25,39.44,39.44,39.78,39.78,39.78,40.1,40.1,40.1,40.1,40.1,39.78,39.78,39.25,39.25,39.25,40.1,39.78,39.78,39.78,40.1,39.78,39.25,39.25,39.78,39.78,39.78,40.1,39.78,39.25,39.78,39.25,39.78
43.25,43.25,43.65,43.09,38.89,38.89,39.25,39.25,39.78,39.78,39.78,39.78,39.78,39.58,39.58,39.78,40.1,40.1,39.78,39.78,39.78,39.58,40.1,40.1,40.1,38.89,32.54,31.82,31.82,32.54,32.54,32.54,31.82,31.82,31.82,31.82,31.82,31.82,30.43,30.43,30.43,29.71,29.17,37.5,39.44,38.51,33.33,32.61,32.58,31.82,32.58,32.61,32.58,32.58,32.58,31.88,31.82,31.88,32.58,31.88,31.88,31.82,31.82,31.82,31.16,32.58,31.82,31.16,30.43,24.0,22.44,21.79,22.0,22.67,22.67,23.08,22.44,22.44,22.44,22.44,22.44,23.08,23.08,23.08,23.33,24.0,23.33,23.33,23.33,23.08,23.08,21.33,15.59,15.59,15.59,15.59,15.1,16.13,16.13,15.63,15.1,15.63,15.15,14.65,15.15,15.15,15.59,15.59,15.59,15.59,14.81,14.41,14.35,14.41,14.81,14.81,14.41,14.41,14.41,14.41,14.81,14.41,14.41,13.68,13.41,13.41,13.33,13.68,13.25,13.33,13.25,13.68,13.33,12.7,11.85,11.74,11.74,11.85,11.59,11.59,11.59,11.85,10.76,10.54,10.67,10.46,10.28,10.42,10.68,10.53,10.26,10.81,10.0,10.0,10.22,10.0,10.22,10.0,10.22,9.77,10.12,10.12,10.49,10.49,10.9,10.9,10.9,10.49,10.34,9.9,9.68,9.9,10.32,9.92,10.07,10.88,11.11,12.5,14.74,56.31,56.31,55.86,56.02,56.2,56.3,55.97,55.97,56.06,55.76,55.76,55.82,55.82,55.82,55.82,55.82,55.99,55.73,55.82,55.82,55.91,56.15,56.19,56.04,55.84,55.63,55.69,55.56,55.5,55.61,55.5,55.5,55.61,55.61,55.67,55.67,55.5,55.5,55.5,55.61,55.61,55.67,55.5,55.61,55.5,55.5,55.5,55.61,55.5,55.56,55.61,55.5,55.61,55.61,55.44,55.61,55.67,55.5,55.61,55.67,55.67,55.5,55.5,55.5,55.5,55.67,55.67,55.67,55.5,55.5,55.67,55.67,55.5,55.5,55.56,55.39,55.3,55.3,55.4,55.67,55.5,55.39,55.35,55.3,55.3,55.3,55.3,55.3,55.3,55.35,55.35,55.35,55.45,55.45,55.45,55.45,55.45,55.45,55.35,55.35,55.35,55.45,55.45,55.4,55.3,55.67,55.67,55.67,55.5,55.61,55.61,55.5,55.63,55.63,55.63,55.78,56.02,56.02,55.95,55.73,55.73,55.9,55.73,55.9,55.95,55.65,55.86,55.9,55.68,55.69,55.69,13.89,13.75,12.7,11.85,11.85,11.35,10.76,10.88,10.88,10.88,10.76,10.76,10.54,10.54,10.54,10.46,10.54,11.11,11.11,11.11,11.11,11.22,11.35,11.59,12.4,12.7,13.01,13.33,12.7,11.85,11.74,12.12,12.79,12.79,13.01,13.33,13.33,12.7,12.02,12.02,12.12,12.12,11.85,11.85,12.22,12.12,12.02,12.12,11.74,11.74,11.85,12.12,11.48,11.35,11.85,13.01,13.01,12.7,12.7,12.7,12.7,12.79,13.01,13.01,12.7,12.79,12.79,12.7,12.79,13.01,14.04,14.41,14.35,14.41,14.35,14.41,14.41,14.41,14.41,14.41,14.35,14.41,14.41,13.68,13.75,13.75,13.68,14.04,14.04,14.04,14.1,14.47,14.41,14.41,14.41,14.41,14.41,14.35,14.41,15.15,15.15,15.15,15.15,14.65,14.71,14.71,14.71,14.71,14.71,14.71,14.71,14.71,19.87,21.79,22.44,22.67,22.67,17.86,19.75,21.79,22.44,21.79,22.44,23.08,17.26,15.1,15.59,15.59,16.11,16.11,15.2,14.81,14.35,13.6,14.04,14.76,14.71,15.2,14.71,14.71,16.11,21.79,21.79,21.79,21.79,22.44,21.79,21.79,21.79,25.69,31.06,31.16,30.43,30.43,30.43,30.56,31.16,31.16,30.56,30.56,30.43,31.06,35.42,39.44,39.78,39.25,39.44,39.25,39.78,39.78,39.78,39.58,40.1,40.1,40.1,40.1,40.1,39.78,40.1,39.58,39.25,39.25,39.78,39.78,39.78,39.78,39.78,39.25,39.78,39.25,39.78,39.78,39.78,39.25,39.25,39.25,39.25,39.78,39.78
39.78,42.11,43.25,42.86,43.25,42.86,42.11,38.89,39.25,39.25,39.25,39.25,39.25,39.25,39.25,39.58,39.58,39.58,39.58,39.58,39.25,39.58,39.78,40.1,39.78,39.08,31.82,31.82,32.58,32.58,32.54,31.16,31.16,31.82,31.82,31.82,31.16,31.82,31.16,31.16,31.16,31.06,37.04,38.89,39.44,33.33,32.58,32.58,32.58,32.58,32.58,32.61,33.33,33.33,32.58,32.58,31.88,32.58,32.58,31.88,32.58,32.58,25.33,23.08,23.08,31.82,31.82,31.82,31.06,29.71,29.71,21.6,23.08,23.08,22.67,22.67,22.67,22.44,22.44,22.44,22.44,22.44,22.44,22.44,23.33,23.33,23.33,23.33,23.33,23.33,22.67,15.63,15.63,15.59,15.59,15.59,15.59,16.13,15.59,15.59,15.63,15.63,15.15,14.65,15.1,15.63,15.59,15.59,15.63,15.66,14.41,14.04,14.35,14.35,14.81,14.41,14.81,14.81,14.41,14.41,14.41,14.41,14.41,13.68,13.33,13.75,13.75,13.25,13.33,13.25,13.33,13.33,13.33,12.12,12.12,12.12,12.12,11.85,11.85,11.85,11.59,11.48,11.59,10.76,10.54,10.33,10.33,10.46,10.61,10.16,10.42,10.42,10.09,9.9,10.42,9.9,9.38,10.34,10.34,9.77,10.12,10.34,10.71,10.49,10.67,10.0,9.38,9.26,9.26,9.68,9.9,9.92,10.08,10.14,10.54,11.11,11.11,12.5,14.2,56.31,56.31,55.95,56.06,56.06,56.17,56.06,56.06,55.95,55.95,55.76,55.76,56.06,55.86,55.85,55.91,55.65,55.82,55.82,55.82,55.91,56.06,55.8,55.95,56.04,55.84,55.77,55.77,55.68,55.73,55.61,55.56,55.67,55.73,55.67,55.5,55.5,55.61,55.5,55.61,55.5,55.61,55.61,55.61,55.61,55.67,55.5,55.5,55.61,55.61,55.61,55.61,55.56,55.56,55.73,55.73,55.73,55.67,55.67,55.5,55.67,55.67,55.67,55.5,55.5,55.67,55.67,55.67,55.67,55.67,55.67,55.67,55.61,55.5,55.5,55.67,55.5,55.5,55.5,55.67,55.5,55.56,55.78,55.4,55.4,55.5,55.4,55.4,55.5,55.5,55.5,55.5,55.5,55.5,55.5,55.5,55.5,55.5,55.5,55.67,55.67,55.5,55.5,55.67,55.61,55.67,55.67,55.67,55.61,55.44,55.5,55.56,55.56,55.56,55.56,55.92,56.02,55.79,56.1,55.99,55.99,55.64,55.73,55.93,55.95,55.9,55.78,55.56,55.69,55.56,54.63,13.51,13.25,12.02,11.48,10.76,10.76,10.76,10.76,10.76,10.76,10.54,10.54,10.33,10.33,10.46,10.13,10.54,11.35,11.46,11.11,11.11,11.35,11.59,11.48,11.85,12.7,13.01,13.01,11.85,11.74,11.85,12.22,12.79,13.33,13.33,13.33,13.33,12.7,12.02,12.7,12.4,11.85,11.59,11.85,12.02,12.02,12.02,11.74,11.74,11.74,11.85,11.48,11.35,11.35,11.59,11.59,11.59,11.59,11.59,11.59,12.79,12.7,13.1,13.01,12.7,12.7,12.7,12.79,12.5,12.5,13.01,14.04,14.35,14.35,14.35,14.35,14.35,14.41,14.41,14.41,14.35,14.41,14.41,14.41,14.04,14.1,13.68,13.68,14.04,14.04,14.47,14.04,14.41,14.81,14.35,14.41,14.41,14.35,14.04,14.41,14.04,14.35,15.15,14.65,14.71,14.71,14.71,14.71,14.71,14.71,14.71,15.1,20.51,22.44,21.79,21.79,22.44,21.79,21.79,21.79,22.44,22.44,22.44,23.08,17.9,15.59,15.63,15.63,15.15,14.76,14.81,13.96,13.68,13.75,13.25,14.76,15.2,14.71,14.29,14.29,15.15,16.11,21.15,21.79,21.79,21.79,22.44,22.44,22.0,22.0,27.08,30.3,30.3,31.06,31.06,31.82,31.06,31.16,31.16,30.43,31.06,30.43,31.82,37.04,39.25,38.89,39.78,39.25,39.58,39.58,39.78,39.78,40.1,40.1,40.1,40.1,40.1,39.58,39.25,39.78,39.78,39.25,39.78,39.78,39.78,39.78,39.25,39.25,39.25,39.25,39.78,39.78,39.25,39.78,39.78,39.25,39.25,39.78,39.78
40.1,39.78,39.78,39.78,39.78,42.5,41.44,40.32,40.63,39.25,39.08,39.08,38.51,39.08,38.89,39.25,39.25,39.25,39.25,39.25,39.25,39.58,39.78,39.78,39.58,39.08,33.33,31.88,31.16,31.88,31.82,31.16,31.16,31.16,31.06,30.43,31.16,38.1,38.51,38.51,38.51,38.51,38.51,34.09,33.33,32.61,31.82,31.82,32.58,32.58,32.61,32.61,33.33,32.61,32.58,31.82,32.58,31.88,32.58,31.88,32.58,32.58,27.33,24.67,22.67,22.67,23.08,22.44,22.44,22.44,22.67,28.26,28.47,26.39,22.22,22.0,22.44,22.44,22.0,22.67,22.44,22.44,23.08,23.08,22.67,24.0,24.0,23.33,23.08,23.08,22.44,16.67,15.63,15.59,15.59,15.59,15.59,15.59,15.59,15.59,15.63,15.1,15.1,14.65,14.65,15.1,15.63,15.2,14.04,14.41,14.41,14.81,14.81,14.76,14.41,14.41,14.41,14.41,14.81,14.41,14.41,14.41,14.35,13.68,13.25,13.25,13.25,13.25,13.25,13.25,13.33,13.68,13.33,11.74,12.12,11.74,12.12,12.12,11.74,11.85,12.02,12.02,12.12,10.76,10.76,10.76,10.54,10.46,10.33,10.23,10.08,10.42,10.42,10.16,10.16,10.42,10.26,10.26,10.22,9.77,10.12,10.34,10.71,10.34,10.19,9.38,9.8,8.77,9.77,9.68,10.0,9.85,10.26,10.26,10.67,11.35,11.35,12.79,18.89,55.86,55.7,56.2,56.06,55.81,55.97,55.66,55.88,55.9,56.03,56.03,55.8,55.97,55.97,55.66,56.17,56.06,55.93,55.91,55.82,55.91,55.82,55.82,55.91,55.72,56.19,55.87,55.84,55.77,55.56,55.7,55.63,55.49,55.7,55.81,55.38,55.67,55.5,55.5,55.67,55.67,55.5,55.44,55.5,55.56,55.69,55.56,55.73,55.5,55.5,55.67,55.5,55.5,55.62,55.7,55.7,55.56,55.62,55.56,55.67,55.61,55.67,55.5,55.61,55.5,55.61,55.5,55.5,55.61,55.5,55.5,55.61,55.61,55.61,55.5,55.5,55.5,55.5,55.5,55.5,55.5,55.61,55.61,55.5,55.5,55.5,55.5,55.5,55.5,55.5,55.5,55.5,55.5,55.5,55.5,55.5,55.5,55.5,55.5,55.5,55.5,55.5,55.5,55.67,55.5,55.5,55.5,55.67,55.61,55.44,55.62,55.63,55.63,55.56,55.56,55.92,56.02,55.87,55.95,55.73,55.9,56.01,55.95,55.85,56.06,55.78,55.9,55.93,55.95,55.95,16.03,13.01,12.92,11.74,10.99,10.76,10.76,10.88,10.54,10.33,10.46,10.46,10.46,10.46,10.13,10.13,10.67,11.35,11.46,11.11,11.11,11.35,11.35,11.59,11.48,11.59,12.12,12.12,12.12,11.74,12.02,12.7,12.7,13.1,13.33,13.33,12.7,12.02,12.02,12.4,12.4,12.02,11.59,11.23,11.85,11.74,11.74,11.74,10.99,10.76,10.76,10.88,10.33,10.46,11.35,11.35,11.22,11.35,11.35,11.59,11.7,12.79,13.01,12.7,13.01,12.7,12.7,12.7,12.5,12.5,12.22,13.01,14.04,14.41,14.41,14.41,14.35,13.96,14.04,14.04,14.41,14.41,14.35,14.41,14.41,14.04,14.1,14.1,14.1,14.04,13.68,14.04,14.04,14.41,14.41,14.35,14.81,14.81,14.41,14.41,14.47,14.47,14.41,15.15,14.71,14.71,14.29,14.76,14.71,14.71,14.71,15.15,18.45,21.79,21.79,21.79,21.79,21.79,21.79,21.79,21.79,22.67,22.44,22.44,22.44,23.08,16.67,15.1,15.1,14.65,14.41,13.68,13.75,13.75,13.33,13.25,14.76,14.76,14.76,14.29,14.29,14.71,15.15,14.71,17.26,21.6,22.44,21.79,21.79,21.79,21.79,21.79,22.0,21.79,28.79,31.06,31.16,31.06,30.43,30.43,30.43,31.06,30.43,31.82,31.88,31.88,31.16,38.1,39.78,39.78,39.58,39.78,39.78,40.1,40.1,40.1,40.1,40.1,39.78,39.25,39.78,39.25,40.1,39.58,39.78,39.78,39.25,39.25,39.78,39.78,39.78,39.78,39.25,39.25,39.25,39.25,39.25,39.25,39.25,39.78
39.78,39.78,39.78,39.78,39.78,39.25,39.44,41.43,43.25,40.91,39.44,38.33,38.51,38.89,38.51,38.51,38.51,38.51,38.89,38.89,39.25,39.25,39.78,39.78,39.58,39.78,37.5,31.16,31.16,31.16,31.06,31.06,31.16,30.43,30.43,30.43,37.04,38.51,39.44,39.44,39.78,40.1,35.33,32.61,32.58,31.88,31.82,31.82,32.58,32.58,32.61,32.58,31.82,31.82,32.54,31.82,32.58,31.88,31.88,32.58,32.58,31.88,31.88,31.88,22.67,22.67,23.08,23.08,22.44,23.08,23.08,22.44,22.0,25.36,26.09,22.44,22.0,22.67,22.44,22.44,22.44,22.44,23.08,23.08,22.67,23.33,23.08,23.08,22.44,22.44,22.67,21.79,15.63,15.1,15.59,15.63,15.59,15.1,15.59,15.63,15.63,15.15,15.1,15.15,15.1,15.1,15.15,14.71,14.04,14.04,14.86,14.41,14.81,14.81,14.41,14.41,14.41,14.76,14.81,14.76,14.81,14.81,14.81,13.68,13.33,12.92,13.33,13.33,13.68,13.25,13.33,13.75,13.01,11.74,11.74,11.74,11.85,11.74,12.12,12.12,12.02,12.12,12.12,10.76,10.54,10.54,10.54,10.54,10.33,10.46,10.46,10.42,10.68,10.42,10.68,10.68,10.68,10.68,10.65,10.12,10.71,10.34,10.71,10.34,10.12,8.82,9.26,9.33,9.68,9.68,10.16,9.85,10.26,10.46,11.11,11.85,12.5,12.72,56.02,55.86,55.83,56.06,56.06,55.93,56.17,55.67,55.9,55.56,55.67,55.67,55.8,55.8,55.8,56.12,56.17,56.17,56.06,55.76,55.91,55.91,55.91,55.82,55.82,55.91,56.19,55.95,55.86,55.77,55.7,55.7,55.7,55.56,55.56,55.7,55.56,55.43,55.5,55.5,55.67,55.63,55.63,55.63,55.63,55.63,55.63,55.7,55.7,55.63,55.7,55.7,55.63,55.7,55.63,55.63,55.7,55.63,55.56,55.76,55.67,55.67,55.5,55.61,55.61,55.61,55.5,55.67,55.61,55.61,55.67,55.5,55.5,55.61,55.5,55.5,55.5,55.5,55.5,55.5,55.5,55.5,55.61,55.61,55.61,55.5,55.5,55.5,55.5,55.5,55.5,55.5,55.5,55.5,55.5,55.5,55.5,55.5,55.5,55.5,55.5,55.5,55.5,55.5,55.5,55.5,55.5,55.5,55.61,55.61,55.61,55.56,55.63,55.63,55.56,55.92,56.02,56.02,56.02,55.9,55.9,55.9,55.83,55.95,55.95,55.9,55.9,55.8,55.69,56.1,55.95,15.43,12.12,12.12,11.85,11.11,10.88,10.54,10.67,10.67,10.33,10.46,10.46,10.46,10.46,10.26,10.67,11.35,11.11,11.46,11.35,11.35,11.59,11.85,11.85,11.96,11.74,12.12,12.12,11.74,11.85,12.12,13.1,13.01,13.41,13.41,13.01,12.02,12.02,12.02,12.4,11.35,11.23,10.76,10.54,11.59,11.23,10.99,10.99,10.76,10.54,10.54,10.54,10.33,10.26,11.11,11.11,11.11,11.35,11.35,11.59,11.59,12.4,12.7,12.7,13.01,13.01,12.7,12.79,12.4,12.12,12.5,13.01,14.04,14.81,14.41,14.41,14.35,13.68,12.7,13.1,14.04,14.41,14.41,14.41,14.41,14.41,14.41,14.41,14.1,13.68,13.68,14.47,14.04,14.41,14.41,14.35,14.81,14.81,14.41,14.41,14.04,14.04,13.51,14.22,14.29,14.29,14.29,15.15,14.71,15.15,15.15,15.15,14.71,19.87,21.79,21.79,21.79,21.79,21.79,21.79,22.44,22.67,22.44,22.44,22.44,22.44,16.11,14.71,15.15,14.65,14.71,13.6,13.68,13.41,13.33,13.68,14.29,14.29,14.29,14.29,14.29,14.71,15.15,14.71,14.71,19.14,21.79,21.79,21.79,21.79,21.79,21.79,21.33,21.33,22.67,31.06,31.06,30.43,30.43,30.43,30.43,30.43,31.82,31.88,32.54,31.88,31.16,31.88,39.78,39.78,40.1,39.78,39.78,39.78,39.78,39.78,40.1,39.78,39.78,39.25,39.25,39.25,39.78,39.25,39.25,39.25,39.25,39.78,40.1,39.78,39.78,39.25,39.25,39.25,39.25,39.25,39.25,39.25,39.25,39.25
39.78,39.78,39.78,39.78,39.78,40.1,40.1,41.18,41.67,39.9,39.25,39.25,39.44,39.78,39.44,38.89,38.89,38.89,38.89,38.51,38.89,38.51,39.25,39.25,39.78,39.78,38.89,35.9,35.33,35.33,36.0,35.42,34.78,30.43,30.3,33.33,38.1,38.89,39.78,39.78,39.78,37.93,34.06,31.88,31.82,32.54,32.54,31.82,32.58,32.58,32.61,31.82,31.82,31.82,32.54,31.88,31.88,31.88,31.88,32.58,32.58,31.88,31.88,31.88,26.39,22.44,23.08,23.08,23.08,22.44,22.44,22.67,23.08,24.67,24.67,22.44,22.0,22.0,22.44,22.44,22.44,23.08,23.08,23.08,23.33,23.33,23.08,23.08,22.44,22.44,22.67,22.44,18.52,17.28,15.63,15.63,15.63,15.1,15.1,15.63,15.63,15.15,15.1,15.63,15.1,15.63,15.15,14.22,14.35,14.81,15.2,14.41,14.41,14.04,14.41,14.41,15.24,14.76,15.2,15.2,14.76,14.81,14.41,13.33,13.01,13.01,13.01,13.01,13.33,13.25,13.33,13.68,13.01,12.12,11.74,11.74,11.85,11.85,12.02,12.12,11.74,12.12,11.85,10.99,10.99,10.54,10.54,10.54,10.76,10.88,10.88,10.68,10.68,10.96,10.53,10.53,10.53,10.96,10.95,10.12,10.71,10.12,10.71,10.34,10.12,9.03,9.33,9.52,10.0,9.91,10.16,10.07,10.06,10.46,11.11,11.85,12.5,12.72,55.86,55.86,55.83,55.93,55.93,55.8,55.88,55.56,55.56,56.03,55.68,56.06,55.81,55.8,55.8,56.03,56.09,56.06,55.76,56.06,55.75,55.83,55.99,55.82,55.99,55.82,56.06,56.13,56.1,55.78,55.7,55.78,56.0,55.77,55.56,55.7,55.56,55.62,55.62,55.49,55.56,55.63,55.49,55.7,55.63,55.49,55.7,55.49,55.49,55.63,55.7,55.63,55.63,55.63,55.63,55.63,55.56,55.77,55.56,55.83,55.56,55.67,55.49,55.62,55.56,55.61,55.5,55.61,55.5,55.61,55.5,55.5,55.5,55.5,55.5,55.61,55.5,55.5,55.5,55.5,55.5,55.61,55.61,55.61,55.67,55.61,55.5,55.5,55.5,55.5,55.5,55.5,55.5,55.5,55.5,55.5,55.5,55.5,55.5,55.5,55.5,55.5,55.5,55.5,55.5,55.5,55.5,55.5,55.61,55.56,55.62,55.69,55.56,55.63,55.49,55.86,55.87,55.87,56.02,55.9,55.9,55.82,55.65,55.65,55.95,55.9,56.06,55.68,55.83,50.88,36.67,14.14,11.85,11.74,11.23,10.76,10.54,10.54,10.67,10.26,10.46,10.46,10.46,10.46,10.46,10.88,10.67,11.46,11.11,11.35,11.59,11.59,11.85,11.85,11.96,12.12,11.74,11.74,12.12,11.85,11.59,12.12,13.01,12.7,12.79,13.01,12.7,12.02,12.4,12.4,12.12,11.35,11.23,10.76,10.76,11.23,10.99,11.11,10.76,10.88,10.67,10.54,10.54,10.33,10.26,11.22,11.35,11.7,11.35,11.59,11.59,11.59,12.7,13.01,13.01,12.7,12.7,13.1,12.5,12.5,12.5,12.5,13.33,14.81,14.81,14.41,14.41,13.96,13.33,13.01,13.1,13.75,13.68,14.81,14.41,14.41,13.96,14.41,14.04,14.1,13.68,13.68,14.47,13.96,14.04,13.96,14.41,14.41,14.41,14.04,14.04,13.6,13.68,13.6,14.76,14.29,14.29,14.29,14.65,15.15,15.63,15.15,15.15,14.71,17.86,22.44,21.79,21.79,21.79,21.79,22.0,22.44,22.44,22.44,21.79,22.44,21.79,19.05,14.71,14.22,14.29,14.29,13.89,14.41,13.6,14.04,14.04,14.29,14.29,14.29,14.29,14.29,14.29,14.71,15.15,14.71,19.05,21.79,21.79,21.33,21.79,21.33,21.33,21.33,21.33,22.67,27.54,31.06,30.43,30.43,30.43,30.43,30.43,31.16,31.82,32.54,32.54,31.88,31.88,37.04,39.25,40.1,39.58,39.58,39.78,39.78,39.58,39.58,39.78,39.78,39.25,39.25,39.25,39.25,39.25,39.25,39.78,39.78,39.78,39.78,39.25,39.25,39.25,39.25,39.25,39.25,39.25,39.25,39.25,39.25,39.25
39.78,39.25,39.25,39.78,39.78,39.78,40.1,39.78,39.78,39.58,39.58,40.1,39.78,39.78,40.1,40.1,39.78,39.78,39.44,39.44,38.51,38.89,38.51,38.89,38.89,38.89,39.25,38.89,38.51,38.51,38.89,38.51,37.93,36.54,36.54,37.5,39.44,40.1,40.1,38.89,35.42,33.33,31.16,31.16,31.16,31.82,32.58,32.58,32.61,32.58,31.82,32.58,31.82,32.58,31.88,31.88,31.88,31.88,32.58,31.82,32.58,32.58,31.88,31.88,31.88,27.08,23.08,23.08,23.08,22.44,23.08,22.67,23.08,23.08,23.08,22.44,22.0,22.67,22.67,22.67,22.67,23.08,23.33,23.33,23.33,23.33,23.33,22.67,22.44,22.44,23.08,22.44,22.67,19.14,15.1,15.63,15.63,15.1,15.59,15.1,15.1,14.65,14.65,14.65,15.15,15.63,15.59,15.59,14.65,15.15,15.1,14.41,14.81,14.41,14.81,14.81,15.24,15.2,14.76,14.81,14.35,14.35,13.68,13.33,13.01,13.01,13.01,13.33,13.25,13.25,13.25,13.68,13.01,11.85,11.85,12.12,12.12,11.85,11.74,11.85,11.85,12.12,11.74,11.85,11.59,10.88,10.76,10.76,10.76,10.76,10.88,10.98,10.68,10.53,10.81,10.53,10.53,10.81,10.81,10.29,10.75,10.71,10.49,10.12,10.71,10.0,9.9,9.68,10.09,9.92,9.92,10.26,10.67,10.88,11.59,12.22,12.5,13.06,56.14,55.86,55.83,56.16,55.8,56.03,55.9,55.67,55.8,55.56,55.69,55.83,55.83,55.95,55.81,55.93,55.67,56.0,55.88,56.17,56.17,55.95,55.75,55.75,55.93,55.75,55.91,55.82,55.9,56.13,55.87,55.72,56.04,55.94,55.94,55.92,55.7,55.7,55.63,55.49,55.63,55.42,55.63,55.7,55.63,55.49,55.49,55.49,55.49,55.49,55.7,55.63,55.63,55.63,55.63,55.63,55.7,55.7,55.56,55.7,55.42,55.56,55.63,55.63,55.56,55.69,55.69,55.43,55.43,55.73,55.5,55.5,55.67,55.67,55.5,55.61,55.5,55.5,55.5,55.61,55.5,55.61,55.67,55.67,55.61,55.5,55.5,55.5,55.5,55.5,55.5,55.5,55.5,55.5,55.5,55.5,55.5,55.5,55.5,55.5,55.5,55.5,55.5,55.5,55.5,55.5,55.5,55.5,55.5,55.5,55.68,55.76,55.63,55.63,55.56,55.87,55.87,55.79,56.02,55.99,55.99,55.91,55.95,55.95,56.29,55.9,55.83,55.69,55.69,27.27,13.25,12.4,11.85,11.48,10.76,10.76,10.33,10.67,10.26,10.26,10.26,10.46,10.46,10.46,10.88,11.35,11.11,11.7,11.35,11.59,11.85,11.85,11.85,11.85,11.74,12.12,11.74,11.74,11.74,11.59,11.59,11.85,12.4,12.4,12.4,12.4,12.4,12.02,12.4,11.85,10.99,10.99,10.99,10.99,10.99,10.99,10.76,10.54,10.54,10.67,10.33,10.54,10.54,10.33,10.26,10.88,11.35,11.7,11.23,11.48,11.48,11.85,12.79,12.3,12.3,12.7,12.7,12.79,12.12,12.12,12.5,13.1,13.33,14.41,14.81,14.41,14.35,14.04,13.01,13.01,13.1,13.1,13.01,13.68,14.04,14.04,13.96,14.1,14.1,13.68,13.68,14.04,14.41,13.96,14.41,14.41,14.81,14.41,14.41,14.1,14.04,13.68,14.41,14.35,14.71,14.76,14.29,15.15,15.1,15.59,15.15,15.15,15.15,15.15,15.15,17.26,17.28,21.79,21.79,22.44,22.44,21.79,22.44,21.79,21.79,21.79,21.79,21.79,19.14,17.95,16.67,14.22,14.22,14.71,14.29,14.29,13.89,13.89,14.35,14.29,14.29,14.29,14.29,14.71,15.15,14.71,19.05,21.79,21.79,21.33,21.33,21.33,21.79,21.79,21.79,21.33,22.67,25.0,27.78,30.43,30.43,31.16,31.16,31.16,31.16,31.82,31.82,31.88,31.88,31.88,35.33,36.0,38.51,39.58,39.78,39.78,39.78,39.78,39.78,39.78,39.25,39.25,39.44,38.89,39.44,39.78,39.78,39.78,39.78,39.25,39.25,39.25,39.25,39.25,39.44,39.44,39.25,39.25,39.25,39.44,39.44
39.25,39.25,39.44,39.78,39.78,39.25,40.1,39.78,39.78,39.78,39.78,39.58,39.58,40.1,40.1,40.1,39.78,39.58,39.78,39.78,39.44,39.44,38.89,38.89,38.89,38.33,38.89,38.89,38.89,38.89,38.89,38.89,39.44,38.89,38.89,38.51,39.78,40.1,39.25,34.06,32.58,32.58,32.58,32.58,32.58,31.16,31.88,31.82,32.58,32.58,31.82,31.82,32.54,32.58,31.88,31.88,31.88,31.88,32.58,32.58,31.82,32.58,32.58,32.58,31.82,24.31,23.08,23.08,23.08,22.67,23.08,23.08,23.08,22.44,23.08,23.08,23.08,22.44,22.44,22.67,22.67,23.08,23.33,23.33,22.67,23.33,22.67,22.44,22.44,22.44,22.44,22.44,23.08,22.0,17.82,15.15,15.63,15.1,15.63,14.65,15.1,15.59,15.63,15.1,15.59,16.13,16.11,16.13,15.59,15.63,14.76,14.81,14.76,14.76,15.24,15.24,15.2,14.76,14.76,14.76,14.35,14.35,13.68,13.33,13.33,13.33,13.33,13.01,13.33,13.01,13.01,13.01,12.7,11.85,12.12,11.85,11.85,11.85,11.85,12.22,11.96,11.85,11.96,11.74,11.48,10.54,10.54,10.88,11.11,10.76,10.88,10.99,10.68,10.68,10.68,10.53,10.81,10.68,10.68,10.53,10.61,10.34,10.34,10.71,10.49,10.34,9.68,9.68,10.09,9.92,10.07,10.26,11.11,11.11,11.85,12.5,12.5,50.93,56.14,55.7,55.83,55.95,55.69,55.83,55.67,55.67,55.93,55.83,55.69,55.83,55.83,55.56,55.83,55.83,55.68,55.8,55.67,55.9,56.17,56.06,55.76,55.95,55.95,55.86,55.95,55.85,55.91,56.35,55.9,55.99,55.99,55.95,55.95,56.1,55.94,55.7,55.56,55.7,55.63,55.63,55.63,55.63,55.63,55.63,55.63,55.49,55.49,55.7,55.63,55.63,55.63,55.63,55.7,55.49,55.49,55.7,55.56,55.63,55.7,55.7,55.63,55.7,55.7,55.7,55.7,55.49,55.49,55.49,55.42,55.75,55.56,55.67,55.67,55.5,55.5,55.61,55.61,55.61,55.5,55.5,55.5,55.5,55.61,55.61,55.5,55.5,55.5,55.5,55.5,55.5,55.5,55.5,55.5,55.5,55.5,55.5,55.5,55.5,55.5,55.5,55.5,55.5,55.5,55.5,55.5,55.61,55.61,55.61,55.61,55.69,55.42,55.94,55.79,55.87,55.87,56.02,55.97,55.73,55.73,55.83,56.29,56.0,55.78,55.56,55.69,53.79,17.46,13.13,12.4,12.12,11.11,11.11,10.76,10.54,10.33,10.33,10.33,10.26,10.54,10.33,10.33,10.33,10.67,10.33,10.54,11.35,11.59,11.59,11.59,11.59,11.85,11.85,11.74,12.12,12.12,11.74,11.85,11.59,11.85,12.12,12.12,12.02,12.4,12.4,12.4,11.85,11.23,10.99,10.88,10.88,10.76,10.99,10.76,10.88,10.54,10.67,10.67,10.67,10.67,10.54,10.67,10.67,10.26,11.11,11.35,11.59,11.48,11.74,11.74,11.74,11.74,11.74,11.74,12.02,12.5,12.5,12.12,12.5,12.4,12.7,13.01,13.01,13.01,13.33,13.68,13.33,13.33,13.01,13.1,13.01,13.01,13.01,13.01,13.33,14.04,14.1,14.04,13.68,13.68,14.04,13.96,14.41,14.41,13.96,13.96,14.04,14.47,14.04,14.04,13.75,14.71,14.71,14.65,14.65,15.1,15.1,15.63,15.59,15.63,15.15,15.15,15.15,15.66,15.15,16.11,21.79,21.79,22.44,22.44,21.79,22.44,21.79,21.79,21.79,22.0,21.33,21.15,21.15,20.37,19.05,15.59,14.35,14.29,14.35,13.89,13.89,14.35,14.35,14.29,14.29,14.71,15.15,15.15,17.26,20.67,21.33,21.15,21.15,21.15,21.79,21.15,21.15,21.33,21.33,21.33,21.33,22.67,27.78,30.43,31.16,30.43,30.56,31.16,31.82,31.82,31.88,31.88,31.82,31.82,31.82,33.33,34.72,39.44,39.78,39.78,39.78,39.78,38.89,38.89,39.44,39.25,39.25,39.78,39.78,39.78,40.1,39.25,39.25,39.25,39.25,39.25,39.25,39.44,39.44,39.78,39.25,39.25,39.44,39.44
38.89,38.89,39.44,39.44,38.89,38.89,39.44,39.44,39.25,39.25,39.25,39.25,39.78,40.1,40.1,40.1,39.78,39.58,39.58,39.58,40.1,39.78,38.89,39.44,39.08,38.51,38.51,38.89,39.25,40.1,39.78,39.25,39.25,39.44,38.89,39.44,40.1,39.58,38.89,31.82,32.58,32.58,32.58,32.58,32.54,31.82,31.82,31.82,31.16,31.82,31.82,31.82,32.54,31.82,31.88,31.88,31.88,32.58,31.88,32.58,31.82,32.58,31.82,31.82,31.06,22.67,22.67,22.67,22.67,22.67,22.67,23.08,23.08,23.08,23.08,23.08,23.08,23.33,22.44,22.67,22.67,23.08,23.33,23.33,23.08,23.08,22.44,22.44,22.44,22.44,22.44,23.08,23.08,22.67,18.45,15.63,14.76,14.76,15.15,14.65,15.1,15.1,15.59,15.59,16.11,16.11,16.11,15.59,15.59,15.59,14.76,14.76,15.24,15.24,15.2,15.24,15.24,14.76,14.81,14.35,14.35,14.35,13.68,13.33,13.33,13.25,13.33,13.01,12.79,13.01,13.01,13.1,12.7,12.12,12.12,11.85,11.85,12.12,11.85,11.85,11.96,11.85,11.85,11.85,11.48,10.54,10.54,10.54,11.11,10.76,11.11,10.87,10.68,10.68,10.68,10.68,10.26,10.26,10.96,10.53,10.78,9.77,9.77,10.34,10.71,10.0,9.68,9.68,10.09,9.92,10.13,10.46,11.11,11.11,11.85,12.22,12.5,55.39,55.83,55.7,55.83,55.69,55.83,55.7,55.67,55.9,55.8,55.69,55.83,55.69,55.98,55.83,55.98,55.98,55.81,55.93,55.67,56.16,55.97,56.06,55.76,55.95,55.76,56.06,55.97,56.06,55.91,56.18,55.82,55.99,55.91,55.95,56.19,56.04,55.95,55.56,55.56,55.7,55.63,55.7,55.63,55.63,55.63,55.56,55.63,55.7,55.7,55.7,55.7,55.63,55.63,55.63,55.63,55.49,55.7,55.7,55.7,55.7,55.63,55.63,55.63,55.7,55.63,55.63,55.63,55.49,55.63,55.49,55.49,55.49,55.49,55.67,55.5,55.67,55.5,55.61,55.61,55.61,55.5,55.5,55.5,55.61,55.61,55.61,55.5,55.5,55.5,55.5,55.5,55.5,55.5,55.5,55.5,55.5,55.5,55.5,55.5,55.5,55.5,55.5,55.5,55.5,55.5,55.5,55.5,55.61,55.61,55.61,55.61,55.62,55.63,55.87,55.87,55.87,55.87,56.02,55.81,55.82,55.82,55.83,55.88,55.9,55.56,55.69,56.1,50.0,13.75,12.7,11.85,11.85,10.88,10.88,10.54,10.33,10.46,10.46,10.67,10.54,10.54,10.54,10.54,10.76,10.54,10.76,10.54,10.76,11.35,11.35,11.59,11.48,11.85,11.74,11.74,11.85,12.12,11.85,11.85,11.74,11.74,12.02,12.02,12.02,12.3,12.4,12.4,11.85,10.99,10.76,10.54,10.54,10.88,10.99,10.76,10.88,10.54,10.67,10.67,10.54,10.76,10.54,10.33,10.46,9.94,11.46,11.59,11.59,11.85,11.85,12.12,12.12,11.74,12.12,11.85,12.12,12.4,12.79,12.79,12.7,12.79,12.7,13.01,12.79,12.79,12.7,13.33,13.01,13.33,13.01,12.7,13.01,12.7,12.7,13.01,13.33,14.04,14.1,14.04,13.68,13.68,13.96,13.96,14.41,13.96,14.41,13.96,13.96,14.47,14.04,14.04,13.6,14.65,14.65,15.15,15.15,15.63,15.63,15.59,15.59,15.1,15.63,14.65,14.71,14.71,14.71,16.11,21.33,21.79,22.44,22.44,22.44,21.79,21.79,21.79,21.79,21.79,21.15,21.15,21.15,20.99,20.99,16.67,14.76,14.76,14.35,13.89,14.29,14.76,14.76,14.29,14.29,14.71,14.65,14.65,17.9,21.33,21.33,21.15,20.99,20.51,20.99,21.15,21.15,21.33,21.79,21.33,21.33,21.79,27.08,31.16,30.56,30.56,30.56,31.16,31.82,31.82,31.82,31.16,31.82,31.82,31.82,31.16,31.16,38.89,39.78,39.25,39.78,39.78,39.25,39.44,39.44,39.25,39.25,39.25,39.78,40.1,39.78,39.25,39.25,39.25,39.25,39.25,39.25,39.25,39.25,39.78,39.78,39.78,39.25,39.44
41.18,43.5,43.33,40.4,43.16,39.78,39.25,39.78,40.32,38.89,38.89,39.25,39.25,39.25,40.1,40.1,40.1,40.1,40.1,40.1,40.1,40.1,39.78,39.25,39.25,39.25,39.44,40.1,40.63,40.63,40.32,39.25,38.51,38.1,39.25,39.58,39.78,33.33,32.58,31.82,32.58,32.58,33.33,32.61,32.61,31.88,31.82,32.61,32.58,31.82,31.82,31.82,31.82,31.82,31.88,32.58,32.58,32.58,32.58,32.58,31.82,31.82,31.82,31.82,22.67,22.67,22.67,22.44,23.33,23.33,23.33,22.67,22.67,23.33,23.08,23.08,23.08,23.08,22.44,22.67,22.44,24.0,24.0,22.67,23.08,22.44,22.44,22.44,22.44,22.44,22.44,23.08,23.08,22.67,22.44,22.44,16.67,15.66,15.05,15.63,15.1,15.59,16.11,16.11,16.11,16.11,16.11,15.15,14.76,14.76,14.76,14.81,14.81,14.76,15.2,15.24,15.24,15.2,14.76,14.81,14.81,14.76,13.68,13.25,13.01,12.7,12.7,13.01,13.01,13.1,12.7,12.79,12.7,12.12,12.12,12.4,12.02,11.85,11.74,11.74,11.85,11.85,11.74,11.85,11.48,10.76,10.99,10.99,10.76,11.11,10.76,10.87,10.81,10.81,10.81,10.96,10.53,10.53,10.81,10.53,10.26,10.29,10.34,10.12,10.0,10.0,10.0,9.72,9.92,9.92,10.13,10.67,11.11,11.11,11.85,12.61,13.54,55.56,55.83,56.14,55.98,55.98,55.98,55.83,55.83,55.83,56.1,55.69,55.69,55.83,55.83,55.69,55.56,55.98,55.83,55.83,56.06,55.56,55.8,55.8,56.0,55.76,55.95,55.86,55.97,55.95,55.74,55.91,55.9,55.9,56.08,55.82,55.91,56.08,56.13,56.04,55.56,55.63,55.56,55.7,55.56,55.7,55.7,55.7,55.77,55.87,55.87,55.87,55.87,56.02,55.87,55.87,55.87,56.1,55.87,55.78,55.56,55.7,55.56,55.7,55.63,55.63,55.63,55.7,55.7,55.7,55.63,55.7,55.63,55.49,55.56,55.7,55.75,55.5,55.61,55.5,55.5,55.61,55.61,55.67,55.5,55.56,55.5,55.5,55.5,55.5,55.5,55.5,55.61,55.61,55.61,55.61,55.61,55.61,55.61,55.61,55.61,55.61,55.61,55.61,55.61,55.61,55.61,55.61,55.61,55.56,55.67,55.56,55.63,55.49,55.63,56.02,56.02,56.02,56.02,55.87,55.63,55.99,55.82,55.93,55.77,55.9,55.56,55.98,54.02,44.44,13.01,12.12,11.85,10.99,10.99,10.88,10.88,10.46,10.67,10.88,10.76,10.87,10.64,10.64,10.99,10.64,10.88,10.76,10.76,10.88,10.46,10.46,10.88,11.35,11.85,11.74,11.85,11.85,12.12,11.85,11.74,11.74,12.12,12.02,12.3,12.7,12.02,12.02,11.85,10.99,10.99,10.76,10.54,10.88,10.76,10.99,10.88,10.54,10.54,10.67,10.76,10.76,10.88,10.54,10.54,10.46,10.33,11.11,11.59,11.96,11.85,11.85,12.12,12.12,11.85,11.85,11.85,11.96,11.85,11.48,11.59,12.7,12.7,12.7,12.79,12.5,12.5,13.01,13.33,13.33,12.7,13.01,12.7,13.01,13.01,13.1,13.01,13.68,13.96,13.96,14.04,14.04,14.04,14.04,13.96,14.04,13.96,14.41,14.04,14.1,14.1,14.1,14.04,13.6,14.29,14.71,15.15,15.1,15.63,15.63,15.59,15.63,15.1,15.1,14.65,14.71,14.29,14.29,15.1,21.15,21.79,22.44,22.44,22.44,22.67,22.44,22.44,22.44,22.0,21.79,21.79,20.99,20.51,20.51,20.99,20.51,20.51,19.75,16.13,20.99,20.99,20.99,20.99,21.15,21.15,21.15,21.15,20.99,20.99,21.15,20.51,20.51,20.99,21.15,21.15,21.15,21.33,21.33,21.79,21.33,22.0,27.78,30.43,30.43,30.43,30.56,30.43,31.06,31.16,31.06,31.16,31.82,31.16,31.16,31.82,31.16,31.82,38.51,39.25,39.25,39.25,38.89,38.89,39.25,39.25,39.58,39.58,39.58,39.78,39.25,39.78,39.25,39.44,39.44,39.25,39.25,39.25,39.78,40.1,40.1,39.78,39.25,39.25
43.41,43.8,43.41,43.25,43.94,43.65,43.65,43.5,43.25,40.4,38.33,38.51,38.89,39.44,39.78,40.1,40.1,40.1,40.1,40.1,40.1,40.1,40.1,39.58,39.78,39.78,40.1,40.1,40.63,40.1,34.72,32.58,32.58,32.58,32.58,32.58,32.61,32.61,32.58,31.82,31.82,32.58,31.88,31.88,31.88,31.88,31.88,32.58,32.58,31.88,32.58,32.54,32.58,31.88,32.58,31.82,31.82,31.82,32.58,32.58,31.82,31.82,31.82,31.82,22.67,22.67,22.67,22.67,23.72,23.33,23.72,23.72,23.72,23.72,23.08,23.08,23.08,23.08,22.44,22.44,22.44,23.08,22.44,22.44,22.44,22.44,21.79,21.79,22.67,22.44,22.67,23.08,23.08,22.44,22.44,23.08,22.67,15.63,15.15,15.05,15.63,15.59,15.59,15.59,15.59,15.59,15.59,15.66,14.76,14.35,14.81,14.81,14.81,14.81,14.76,14.81,14.81,14.35,14.41,14.41,14.35,14.35,13.68,13.33,13.1,12.7,12.7,12.7,13.01,12.7,13.41,13.01,13.01,12.02,11.74,11.74,12.12,11.85,11.59,11.85,11.85,11.74,11.85,11.85,11.85,10.54,10.54,10.88,10.67,10.67,10.88,10.99,10.68,10.96,10.96,10.68,10.68,10.81,10.68,10.68,10.26,10.26,10.22,10.0,10.0,10.0,10.0,9.72,9.92,9.92,10.46,11.11,11.11,11.7,12.22,50.0,55.98,55.83,55.98,55.98,55.98,55.83,55.83,55.98,55.98,55.83,55.69,55.69,55.83,55.83,55.83,55.83,55.56,55.56,55.98,55.83,55.83,55.83,55.8,55.8,55.93,55.88,55.86,56.17,56.17,56.29,55.85,55.82,55.99,55.9,55.99,55.82,55.91,56.01,56.01,55.97,55.95,56.19,55.94,55.63,55.7,55.79,55.79,56.02,55.87,55.87,56.02,55.87,55.87,56.1,55.87,55.87,55.87,55.87,56.1,56.1,56.1,56.1,55.94,55.7,55.7,55.63,55.63,55.56,55.7,55.7,55.7,55.7,55.7,55.49,55.77,55.7,55.7,55.63,55.63,55.49,55.49,55.63,55.63,55.56,55.49,55.49,55.5,55.5,55.5,55.5,55.5,55.5,55.61,55.61,55.61,55.61,55.61,55.61,55.61,55.61,55.61,55.61,55.61,55.61,55.61,55.61,55.61,55.61,55.5,55.56,55.56,55.63,55.56,55.56,55.63,56.02,56.02,56.02,55.79,55.79,55.64,56.08,56.25,55.77,55.9,55.9,55.95,55.41,13.75,13.33,12.7,12.12,11.85,10.99,10.76,10.76,10.76,10.88,10.76,10.76,10.87,10.81,10.81,10.96,10.81,10.81,10.87,10.76,10.76,10.88,10.46,10.26,10.88,11.7,11.96,11.85,11.74,11.74,11.85,12.12,12.02,12.02,12.02,12.3,12.7,12.7,11.35,11.11,10.99,10.99,10.99,11.11,10.88,10.88,10.76,10.99,10.54,10.88,10.88,10.76,10.76,10.76,10.88,10.67,10.33,10.46,10.33,10.46,11.85,11.85,11.85,11.85,11.85,11.74,11.85,11.74,11.85,11.59,11.59,11.59,11.59,11.23,11.35,11.85,12.5,12.22,12.5,13.01,13.01,12.7,12.7,13.01,12.7,13.1,13.1,12.7,12.7,13.33,14.04,14.04,13.68,13.68,14.04,14.04,14.47,14.1,14.1,14.1,14.1,14.1,14.1,14.1,13.68,14.1,14.04,14.41,15.15,14.65,15.1,15.63,15.1,15.63,14.65,14.65,14.29,14.29,13.89,14.29,15.1,21.15,21.79,22.44,22.44,22.44,22.67,22.44,22.44,22.67,22.44,21.33,21.79,21.6,21.6,21.6,20.99,20.99,20.51,20.99,20.99,20.99,20.99,20.99,20.51,20.99,20.51,20.51,20.51,20.51,20.99,20.51,20.51,20.51,20.51,20.51,20.51,20.51,21.79,21.15,21.33,21.33,25.69,30.3,30.3,30.3,30.43,30.56,31.16,31.06,31.16,31.06,31.16,31.82,31.06,31.06,31.16,31.82,31.82,31.88,39.78,39.78,39.25,38.89,38.89,39.25,39.25,39.58,39.58,40.1,39.25,39.25,39.78,39.25,39.44,39.44,39.44,39.44,39.25,39.58,40.1,39.78,39.78,39.25,39.44
42.5,42.31,42.31,42.31,42.92,42.31,42.31,42.54,42.11,40.4,38.89,38.89,38.89,39.44,39.25,40.1,40.1,40.1,40.1,40.1,40.1,40.1,40.1,40.1,40.1,40.1,39.44,38.51,37.93,37.5,34.06,32.58,32.58,32.58,33.33,32.58,32.58,32.61,32.61,31.82,31.82,32.58,31.82,31.88,31.88,31.88,31.88,31.88,32.54,31.82,32.58,32.58,31.88,31.88,31.82,32.58,32.58,31.82,31.82,32.58,32.58,31.82,31.82,32.58,22.44,22.44,22.67,23.33,23.33,23.33,22.67,23.33,23.08,22.44,23.08,23.08,22.44,23.08,23.08,23.08,23.08,23.08,22.44,22.67,23.08,22.44,23.08,22.67,23.08,22.67,23.08,23.08,23.08,23.33,23.08,23.33,23.08,17.95,15.1,15.05,15.63,15.63,15.63,15.63,15.63,15.59,15.59,15.66,14.76,14.41,14.81,14.81,14.81,14.81,14.35,14.41,14.81,14.41,14.41,14.04,13.6,13.6,13.33,13.33,13.1,13.01,13.1,13.01,13.33,13.33,13.33,13.68,13.01,11.74,11.74,11.59,11.59,11.59,11.59,11.85,11.85,12.12,11.85,11.85,11.59,10.67,10.54,10.67,10.67,10.33,10.67,10.64,10.71,10.42,10.42,10.68,10.26,10.42,10.68,10.68,10.26,10.68,10.48,10.1,10.0,10.0,9.68,9.72,9.92,9.92,10.46,11.11,11.11,11.7,12.22,50.0,55.98,55.83,55.98,55.83,55.83,55.83,55.83,55.83,55.98,55.83,55.83,55.83,55.69,55.83,55.56,55.83,55.69,55.83,55.83,55.83,55.83,55.83,55.81,56.06,55.93,56.25,55.67,55.86,56.06,55.76,55.85,56.01,56.01,56.11,55.83,55.93,55.83,55.91,55.91,55.9,56.19,56.1,55.87,55.92,55.86,56.02,56.02,56.04,55.88,55.88,55.88,55.88,55.95,55.95,55.87,55.87,55.87,56.02,56.1,55.87,56.1,55.87,55.94,55.7,55.84,55.7,55.56,55.56,55.7,55.49,55.7,55.7,55.7,55.63,55.49,55.49,55.49,55.7,55.7,55.7,55.49,55.63,55.63,55.56,55.49,55.43,55.56,55.56,55.56,55.56,55.56,55.56,55.49,55.49,55.56,55.56,55.56,55.56,55.56,55.56,55.56,55.56,55.56,55.56,55.56,55.56,55.56,55.56,55.56,55.49,55.43,55.56,55.63,55.63,55.84,55.79,56.02,55.79,55.95,55.88,55.9,55.99,55.95,55.97,55.8,55.8,55.69,43.06,12.7,12.7,12.4,11.48,11.48,10.99,10.76,10.54,10.76,10.76,10.76,10.76,10.85,11.11,11.26,10.81,10.53,10.68,10.61,10.61,10.61,10.64,10.26,10.26,10.88,11.7,11.59,11.96,11.85,11.74,12.12,12.02,12.02,12.4,12.3,12.7,12.7,12.02,10.99,10.64,10.99,10.99,10.99,10.76,10.76,10.76,10.76,10.76,10.88,10.88,10.88,10.76,10.76,10.76,10.54,10.67,10.54,10.54,10.46,10.67,11.35,11.59,11.59,11.35,11.35,11.23,11.59,11.35,11.85,11.59,11.59,11.59,11.46,10.99,11.35,11.7,12.22,12.5,12.5,13.01,13.01,12.79,12.79,13.01,13.01,13.01,13.1,12.7,12.7,13.41,13.68,13.68,13.68,13.68,14.04,14.04,14.04,14.1,14.04,13.68,13.68,13.68,13.6,13.68,14.04,14.04,14.47,14.47,15.2,14.65,15.1,15.15,14.65,15.63,14.71,14.71,14.29,14.29,14.35,14.29,15.59,21.79,22.44,22.44,22.44,22.44,23.08,22.44,22.44,22.44,21.79,21.79,21.79,21.79,21.15,21.6,20.99,20.99,21.15,20.51,20.51,20.51,20.51,20.51,20.99,20.51,20.99,20.99,20.99,20.99,20.99,20.99,20.51,24.31,24.0,24.0,24.36,24.31,24.31,25.0,25.0,24.67,27.78,30.3,30.3,31.06,30.43,30.43,31.16,30.43,30.43,30.43,31.16,30.43,30.43,31.16,30.56,31.82,31.82,31.16,37.04,38.1,39.44,39.44,38.89,39.25,39.78,40.1,40.1,39.78,39.25,39.25,39.78,39.25,39.25,39.25,39.25,39.78,39.78,40.1,39.78,40.1,39.78,39.44,39.25
40.1,40.1,40.1,40.1,40.1,39.58,39.78,40.1,40.1,40.1,39.78,39.25,39.25,39.44,39.25,40.1,39.58,39.58,39.58,39.58,40.1,40.1,40.1,40.1,40.1,39.78,36.0,31.82,31.82,32.58,32.58,31.82,32.58,32.58,32.61,32.61,31.82,31.88,31.82,31.82,32.54,32.54,31.82,31.88,32.54,32.54,31.88,32.58,32.54,32.54,32.54,31.82,32.58,32.58,31.82,32.58,32.58,32.58,32.58,32.58,32.58,32.58,31.82,32.58,22.67,22.67,22.67,22.67,22.67,22.67,22.67,22.67,22.44,22.44,22.44,22.44,22.44,23.08,23.08,23.08,22.44,22.44,22.44,23.08,23.33,22.44,23.08,22.44,23.33,23.33,23.08,22.44,23.33,23.33,23.33,23.33,22.67,22.67,15.1,15.63,15.1,15.1,15.63,15.63,15.63,15.59,15.63,15.2,14.76,14.81,14.81,14.41,14.81,14.81,14.41,14.04,14.81,14.41,14.41,14.41,13.68,13.01,13.33,13.33,13.41,13.1,13.33,13.33,13.75,13.75,13.33,13.01,12.7,12.12,11.35,11.23,11.23,11.35,11.59,11.59,11.59,11.59,11.59,11.59,11.59,11.11,10.54,10.54,10.67,10.33,10.54,10.88,10.76,10.14,10.32,10.42,10.42,10.42,10.96,10.68,10.96,10.96,10.96,10.53,10.34,10.0,10.0,10.19,10.37,10.07,10.26,11.11,11.11,11.7,15.79,54.32,55.98,55.83,55.56,55.83,55.83,55.83,55.83,55.98,55.56,55.69,55.69,55.83,55.69,55.69,55.83,55.83,55.69,55.83,55.83,55.83,55.83,55.98,55.98,55.95,55.8,55.8,55.8,56.0,56.0,55.77,55.76,55.76,55.95,56.06,55.86,56.17,56.14,55.91,56.08,55.91,56.15,55.97,55.97,55.95,56.02,55.79,55.8,55.99,55.82,55.82,55.82,55.82,56.06,55.81,55.87,55.87,55.87,56.1,56.1,56.1,55.87,56.1,56.1,56.1,55.95,56.19,55.7,55.56,55.7,55.7,55.7,55.7,55.7,55.7,55.7,55.7,55.49,55.49,55.7,55.7,55.63,55.7,55.7,55.7,55.49,55.7,55.7,55.7,55.7,55.7,55.7,55.7,55.49,55.49,55.49,55.49,55.49,55.49,55.49,55.49,55.49,55.49,55.49,55.49,55.49,55.49,55.49,55.49,55.49,55.63,55.63,55.56,55.56,55.7,56.02,55.79,55.79,55.95,55.81,55.73,55.73,55.83,55.95,56.09,55.81,55.83,55.98,13.33,11.74,12.12,11.59,11.35,10.99,10.85,10.71,10.37,11.23,11.11,10.71,10.98,10.81,11.26,11.26,10.53,10.81,10.53,10.68,10.68,10.42,10.23,10.26,10.26,10.88,11.59,11.85,11.85,12.22,12.12,12.4,12.4,12.4,12.4,12.7,12.4,11.74,10.87,10.64,10.64,10.99,10.99,10.99,10.76,10.99,10.76,10.76,10.76,10.88,10.76,10.76,10.76,10.54,10.54,10.54,10.67,10.33,10.46,10.46,10.54,10.76,10.99,10.54,10.54,10.54,10.67,11.35,11.59,11.59,11.59,11.85,11.85,11.46,11.11,11.11,11.7,12.5,12.12,12.12,12.7,12.79,12.7,13.01,13.01,13.01,13.01,12.7,13.1,13.01,13.6,14.04,14.04,14.04,14.04,14.41,13.96,14.04,14.1,13.68,14.04,13.68,13.68,14.04,14.04,14.04,13.6,14.1,14.1,14.81,15.15,15.15,14.65,15.15,14.71,14.71,14.29,14.71,14.71,14.29,14.71,16.11,22.44,23.08,23.08,22.44,22.44,23.08,22.67,22.44,21.79,21.33,21.33,21.79,21.79,21.79,21.15,21.79,21.15,21.15,21.15,25.69,25.69,26.0,25.69,25.69,25.36,25.69,25.69,25.33,25.33,25.33,26.0,25.33,29.71,29.86,29.71,30.3,30.3,29.71,30.43,29.71,29.71,29.71,29.71,29.71,30.43,31.06,30.3,30.56,30.56,31.06,31.06,31.06,31.06,31.06,31.06,31.16,31.16,31.16,31.16,31.16,34.06,38.89,39.08,38.89,39.58,40.1,40.1,39.58,39.25,39.25,39.25,39.78,39.78,39.78,39.25,39.78,39.78,39.78,39.78,39.78,39.78,39.78,38.89,38.89
40.1,40.1,40.1,40.1,40.1,40.1,40.1,40.1,40.1,40.1,40.1,39.58,39.25,39.25,39.25,39.25,39.25,39.25,39.44,39.78,39.78,40.1,40.1,40.1,36.0,35.42,32.58,32.58,32.58,31.82,31.82,32.58,31.82,31.82,31.82,31.82,31.82,32.54,32.54,31.82,32.54,32.54,31.82,31.88,32.58,32.58,31.82,32.58,32.54,32.54,32.54,31.82,31.82,31.82,31.82,31.82,32.58,32.58,32.58,32.58,32.58,32.58,32.58,32.58,22.67,22.67,22.67,22.67,23.08,22.44,22.44,22.67,22.67,22.67,22.44,22.44,22.44,23.08,23.08,22.44,22.44,22.44,22.44,22.44,23.08,22.44,22.44,22.44,23.08,22.44,23.08,22.44,23.33,22.67,23.33,23.33,23.08,18.45,15.59,15.59,15.63,15.15,15.63,15.63,15.59,16.13,15.66,14.81,14.81,14.81,14.81,14.81,14.76,14.76,14.81,14.41,14.41,14.41,14.04,14.41,13.68,13.01,13.33,13.33,13.33,13.01,13.41,13.33,13.01,13.33,13.33,13.41,12.7,12.79,12.12,12.4,11.85,12.12,11.85,11.85,11.85,11.85,11.59,11.59,11.85,11.85,11.11,10.67,10.67,10.33,10.33,10.67,10.46,10.46,10.76,10.57,10.68,10.53,10.81,10.81,10.81,11.11,11.11,11.11,10.49,10.34,10.0,10.19,10.42,10.26,10.26,11.11,11.11,11.7,38.89,55.98,55.98,55.98,55.83,55.98,55.83,55.83,55.83,55.69,55.69,55.69,55.69,55.69,56.1,55.69,55.83,55.83,55.69,55.83,55.98,55.83,55.83,55.98,55.83,55.83,56.06,55.8,55.8,55.67,55.9,55.78,56.0,55.88,55.88,56.0,56.29,56.17,56.06,56.14,56.03,55.74,55.91,55.82,55.82,55.97,56.04,55.97,55.73,55.83,55.75,56.03,55.85,56.03,56.14,56.01,55.81,55.81,55.81,55.81,55.9,56.04,56.1,56.1,56.1,56.19,55.87,55.95,55.94,55.86,55.94,55.78,55.7,55.7,55.49,55.49,55.7,55.7,55.7,55.7,55.7,55.7,55.7,55.7,55.7,55.7,55.7,55.7,55.7,55.63,55.7,55.7,55.7,55.7,55.49,55.49,55.49,55.49,55.49,55.49,55.49,55.49,55.49,55.49,55.49,55.49,55.49,55.49,55.49,55.49,55.63,55.63,55.63,55.63,55.78,56.02,55.79,55.79,56.19,55.64,55.9,55.73,55.65,55.65,55.95,56.09,55.81,55.98,55.98,13.33,11.59,11.85,11.48,10.76,11.11,11.11,10.96,10.53,10.68,11.11,11.11,11.26,11.26,11.26,10.53,10.53,10.81,10.68,10.68,10.42,10.32,10.2,10.26,10.26,10.88,11.85,11.85,11.85,11.85,11.74,12.4,12.4,12.4,12.4,11.23,10.87,10.64,10.64,10.87,10.87,11.11,10.99,10.99,10.98,10.98,10.98,10.71,10.71,10.71,10.71,10.87,10.54,10.88,10.88,10.88,10.67,10.33,10.67,10.76,10.54,10.99,10.76,10.76,10.54,10.54,10.67,10.76,11.11,11.59,11.85,11.59,11.35,11.22,11.11,11.85,12.22,12.5,12.5,12.5,12.7,12.7,13.01,13.01,12.7,13.01,13.01,12.7,13.01,13.33,13.25,13.41,13.68,13.96,13.96,13.96,14.04,14.04,14.1,13.68,13.75,13.33,13.33,13.68,13.6,13.96,13.96,14.04,13.6,14.35,15.1,14.65,14.65,14.65,14.71,14.71,14.29,14.29,14.29,14.71,14.71,15.63,19.23,23.08,23.08,22.44,22.67,22.44,21.79,21.79,21.79,21.79,21.33,21.15,21.15,21.15,21.15,21.33,25.69,27.54,27.54,29.71,30.43,30.43,30.43,29.71,30.43,30.43,30.43,29.17,29.17,29.17,30.43,30.43,31.06,30.43,29.71,31.16,30.43,30.56,30.3,30.3,29.71,30.43,30.43,29.71,30.43,30.3,30.43,31.16,31.06,30.43,30.43,31.06,31.16,30.43,30.56,31.16,31.16,31.16,31.88,37.04,37.65,38.51,38.89,40.1,40.1,40.1,39.58,39.78,39.25,39.25,39.25,39.78,39.78,39.25,39.25,39.78,40.1,39.78,39.78,39.78,39.25,39.25,39.44,38.33
39.78,40.1,40.1,40.4,40.1,40.1,40.1,40.1,40.1,40.1,40.1,40.1,39.25,38.89,38.89,38.51,38.51,38.89,38.89,39.25,39.25,39.44,39.78,40.32,31.82,31.82,31.82,32.58,31.82,31.82,31.82,31.82,31.82,31.82,32.54,32.54,32.54,32.54,32.54,31.82,31.82,31.82,31.82,31.88,31.88,31.88,32.58,32.58,32.54,32.54,32.54,32.58,31.82,31.82,32.58,32.58,32.58,32.58,31.88,31.88,32.58,32.58,32.58,31.88,22.44,22.67,22.67,22.44,23.08,22.44,22.67,22.67,22.67,22.67,22.44,22.44,22.44,23.08,22.44,22.44,22.44,22.44,22.44,22.44,23.08,22.44,22.44,22.44,22.44,22.44,22.44,22.44,22.67,23.33,23.33,23.33,23.08,16.11,16.11,15.59,15.59,15.59,15.63,15.63,15.1,15.59,15.66,14.81,14.81,14.81,14.81,14.81,14.81,14.81,14.41,14.41,14.41,14.35,14.35,14.41,13.68,13.33,13.33,13.33,13.01,13.01,13.01,13.01,13.33,13.33,13.33,13.41,13.41,13.01,13.01,13.33,12.12,11.74,12.12,11.85,11.85,11.85,11.85,11.85,11.74,11.74,11.35,10.54,10.54,10.54,10.33,10.33,10.33,10.33,10.76,10.57,10.96,11.11,11.11,10.81,10.81,11.11,11.26,11.11,10.12,10.56,9.68,9.46,10.07,10.26,10.06,11.11,11.11,11.7,38.33,55.83,55.83,55.83,55.83,55.83,55.83,55.83,55.83,55.83,55.69,55.69,55.69,55.69,56.1,56.1,55.83,55.69,55.83,55.83,55.83,55.98,55.56,55.98,55.83,55.83,55.81,55.8,55.8,55.67,55.9,55.9,56.03,56.03,55.9,55.8,56.09,56.17,55.76,55.76,56.06,55.83,55.82,55.82,55.82,55.9,55.97,55.73,55.73,55.75,55.85,56.06,55.86,56.06,55.76,55.74,55.82,55.82,55.82,55.82,55.91,55.8,56.1,56.1,56.1,56.19,56.1,55.87,55.87,56.1,56.1,55.94,55.7,55.7,55.63,55.49,55.7,55.7,55.7,55.7,55.7,55.7,55.63,55.63,55.63,55.63,55.7,55.7,55.63,55.63,55.63,55.63,55.63,55.7,55.49,55.7,55.7,55.7,55.7,55.7,55.7,55.7,55.7,55.7,55.7,55.7,55.7,55.7,55.7,55.7,55.63,55.63,55.63,55.7,55.79,56.02,55.79,55.79,56.04,55.73,55.73,55.64,55.85,55.65,55.95,55.97,55.81,55.98,55.98,13.33,11.59,11.85,11.23,10.54,10.76,11.11,11.26,10.81,10.81,11.11,11.11,11.26,10.81,10.81,10.53,10.53,10.68,10.42,10.68,9.92,10.08,10.26,10.26,10.26,10.88,11.59,11.59,11.85,12.12,12.12,12.4,12.4,12.7,12.4,10.64,10.64,10.87,10.87,10.99,10.76,10.76,10.76,10.99,10.71,10.53,10.68,10.68,10.96,10.96,10.53,10.74,10.67,10.67,10.67,10.67,10.67,10.67,10.67,10.76,10.76,10.76,10.76,10.76,10.54,10.67,10.54,10.33,10.76,11.85,11.96,11.59,11.35,11.11,11.35,12.5,12.5,12.22,12.5,12.79,12.7,13.1,13.01,13.01,13.01,13.01,12.7,13.1,13.1,13.01,13.1,13.1,13.1,14.04,14.41,14.04,14.1,13.68,13.68,13.33,13.68,13.75,13.75,13.68,14.04,14.04,14.04,14.04,14.04,13.89,14.65,14.65,14.65,14.65,14.71,14.71,15.15,15.15,14.71,15.15,15.1,15.05,17.28,23.08,23.08,23.08,21.79,21.79,21.79,21.79,22.0,21.79,21.6,21.15,21.15,21.15,21.15,21.79,27.78,30.43,30.43,31.16,30.43,30.3,30.43,30.43,30.43,30.43,30.43,30.43,30.43,30.43,30.43,30.3,30.56,30.56,31.16,30.43,30.43,30.43,30.43,30.56,30.43,30.43,30.43,30.43,30.43,30.43,30.43,31.06,31.06,30.43,30.43,30.43,31.06,31.16,31.16,31.16,31.82,31.16,31.16,38.51,38.89,39.25,39.58,40.1,40.1,40.1,39.58,39.78,39.25,39.78,39.78,39.78,39.25,39.25,39.25,39.25,39.25,39.25,39.25,39.44,39.44,38.89,39.44,38.89
39.25,39.78,40.1,40.63,40.4,39.58,39.78,40.1,40.1,39.58,40.1,40.1,39.78,38.89,39.25,38.89,38.89,38.51,38.89,38.89,38.51,38.51,39.44,39.58,31.82,31.82,31.82,31.82,32.54,32.54,32.54,32.54,32.54,32.54,32.54,32.54,32.54,32.54,32.54,31.82,32.54,32.58,32.58,32.58,32.58,32.58,32.54,32.54,32.54,32.54,32.54,32.58,32.58,31.88,31.82,31.82,31.88,31.88,31.88,31.88,32.58,32.58,32.58,31.88,23.08,23.08,22.67,22.67,22.44,22.0,22.0,22.67,23.08,23.08,22.44,22.44,22.44,22.44,22.44,22.44,22.44,22.44,22.44,22.44,23.08,22.67,22.44,22.44,22.44,22.44,23.08,23.08,23.08,23.08,23.33,23.08,17.26,16.11,15.59,16.13,16.13,16.13,16.13,15.63,15.63,15.1,15.15,14.35,14.76,14.76,14.41,13.96,14.41,14.81,14.41,14.41,14.41,14.41,14.81,14.04,13.68,14.41,13.68,13.01,13.01,13.01,12.7,12.7,13.01,13.01,13.33,13.33,13.01,13.01,13.33,13.33,12.4,12.12,12.12,12.12,12.12,12.4,12.02,12.02,12.02,12.02,11.74,10.76,10.76,10.88,10.88,10.88,10.88,11.11,10.87,10.68,11.11,11.11,11.27,10.49,10.49,11.11,11.11,10.71,10.0,10.26,9.76,9.92,10.07,10.06,10.88,11.11,12.5,12.7,41.67,55.83,55.98,55.83,55.83,55.69,55.69,55.83,55.83,55.69,55.83,55.83,55.69,55.26,55.09,55.09,16.0,15.56,15.59,35.0,55.83,55.98,55.98,55.98,55.83,55.83,56.1,55.83,55.98,55.8,56.03,56.03,56.03,55.67,55.67,55.8,56.03,56.17,55.95,55.76,55.76,56.06,56.06,55.82,55.91,56.08,55.99,55.9,55.9,55.85,55.76,56.06,56.06,55.95,55.86,56.06,55.82,55.99,55.99,55.82,55.82,55.82,55.82,55.99,56.1,56.1,56.1,56.1,56.1,56.1,55.95,55.79,55.87,56.1,56.1,55.87,56.1,55.94,55.49,55.49,55.49,55.49,55.63,55.49,55.56,55.7,55.7,55.7,55.7,55.7,55.7,55.49,55.63,55.63,55.7,55.7,55.7,55.7,55.7,55.7,55.7,55.7,55.7,55.7,55.7,55.7,55.7,55.7,55.7,55.7,55.63,55.63,55.77,55.79,56.02,56.02,55.87,55.73,55.9,55.9,55.73,55.73,55.56,56.06,55.9,55.9,55.68,55.83,55.69,13.33,13.01,12.4,11.35,10.67,10.54,10.96,11.11,11.26,11.26,11.11,11.26,10.81,10.81,10.81,10.53,10.68,10.42,10.57,10.57,10.16,9.85,10.26,10.67,11.11,11.35,11.85,11.85,11.85,12.02,12.4,12.7,12.7,11.23,10.99,10.99,10.64,10.99,10.87,10.68,10.68,10.68,10.68,10.53,10.53,10.53,10.68,10.53,10.68,10.68,10.57,10.28,10.46,10.46,10.67,10.67,10.54,10.76,10.76,10.76,10.76,10.88,10.54,10.54,10.54,10.33,10.67,10.46,10.67,11.35,11.7,11.35,11.22,11.11,12.5,12.5,12.22,12.4,13.1,12.7,13.1,13.1,12.7,13.01,13.01,13.01,13.01,13.01,12.7,13.01,13.1,12.79,12.5,13.68,14.04,13.68,13.68,13.68,13.75,13.75,13.75,13.75,13.75,13.33,13.33,13.68,13.75,14.71,14.65,14.65,14.65,14.65,15.15,14.71,14.76,14.71,14.65,14.65,14.71,15.15,15.15,15.1,15.1,16.13,19.64,21.79,21.79,21.79,21.79,21.79,21.79,20.51,21.15,21.6,21.15,21.79,21.79,21.6,27.78,31.16,31.06,31.82,31.06,31.06,31.06,30.43,30.43,31.16,31.16,30.43,30.43,30.43,31.82,31.06,31.06,31.16,31.82,31.06,31.06,31.16,31.16,31.16,30.43,30.43,30.43,31.16,30.56,31.16,31.16,31.16,31.06,30.43,30.43,31.06,31.06,31.06,31.16,31.16,31.82,30.43,37.93,38.89,39.44,40.1,40.1,40.1,40.1,40.1,39.58,39.78,39.25,39.25,39.44,39.44,39.78,39.25,39.78,39.25,39.25,39.44,39.44,39.44,39.44,39.25,38.89,39.25
35.42,39.08,39.44,39.25,33.33,38.69,38.89,38.89,38.89,39.25,39.58,40.1,39.78,39.78,39.25,39.25,39.25,38.89,39.08,38.89,38.89,38.51,38.51,38.89,33.33,33.33,32.54,32.54,32.54,32.54,32.54,32.54,31.82,31.82,32.54,32.54,32.54,32.54,31.82,31.82,32.54,32.54,32.54,32.54,31.82,31.82,31.82,32.54,32.54,32.54,31.82,31.82,31.82,31.88,31.82,31.82,31.16,31.16,31.82,31.88,31.88,32.58,31.88,31.88,31.16,24.0,22.67,22.67,22.0,22.0,22.0,22.44,23.08,23.08,23.08,22.44,22.44,22.44,22.44,22.44,22.44,22.44,22.44,23.08,23.08,23.08,23.08,23.08,23.08,22.44,23.08,23.08,23.08,23.08,22.67,23.08,16.67,15.59,15.59,16.13,16.13,15.59,16.13,15.59,15.63,15.1,14.76,14.04,14.41,14.04,14.1,13.96,14.04,14.04,14.1,14.47,14.04,14.41,14.1,13.68,14.04,14.41,13.68,12.7,12.7,12.7,13.1,13.1,13.01,13.01,13.01,13.01,13.01,13.01,13.33,13.68,12.4,12.12,12.12,11.74,12.12,12.4,12.02,12.12,11.74,11.59,10.76,10.76,10.99,10.99,10.99,10.99,11.11,11.11,10.83,11.27,10.95,10.61,11.11,11.11,10.9,10.71,10.26,10.0,10.22,10.16,9.92,9.93,10.46,10.06,11.11,11.59,12.5,23.08,55.98,55.98,55.98,55.98,55.83,55.42,55.42,55.98,55.98,55.83,55.83,55.69,55.69,34.85,14.35,14.41,14.04,13.01,13.01,19.79,55.21,55.83,55.98,55.83,55.83,55.98,55.98,55.83,55.56,55.83,55.83,55.95,56.16,56.06,55.83,55.68,55.8,55.8,55.67,55.67,55.8,56.09,55.77,56.06,56.06,55.85,55.91,55.82,56.03,55.95,55.95,55.95,56.06,55.76,55.76,55.76,56.06,56.06,56.06,55.76,56.06,55.83,55.74,56.01,55.82,55.81,55.88,56.04,55.95,56.1,56.1,55.87,55.87,55.87,56.1,56.1,55.87,56.1,56.1,56.1,55.95,55.7,55.77,55.77,55.7,55.63,55.7,55.7,55.7,55.49,55.49,55.7,55.7,55.49,55.49,55.49,55.49,55.49,55.49,55.49,55.49,55.49,55.49,55.49,55.49,55.49,55.49,55.49,55.49,55.49,55.56,55.7,55.7,56.02,56.02,55.9,55.73,55.73,55.9,55.73,55.65,55.85,55.85,56.06,55.67,55.67,55.81,55.83,55.83,13.73,12.7,12.7,11.23,10.99,10.74,11.4,11.26,11.11,11.26,10.81,10.96,10.53,10.53,10.81,10.53,10.26,10.16,10.16,10.08,10.26,10.26,10.26,10.88,11.59,11.85,12.12,11.85,11.85,12.02,12.02,11.48,10.99,10.99,10.99,10.99,10.99,11.11,10.83,10.53,10.53,10.53,10.68,10.53,10.96,10.53,10.53,10.53,10.68,10.68,10.71,10.76,10.54,10.54,10.76,10.76,10.76,10.76,10.76,10.76,10.54,10.67,10.67,10.67,10.46,10.26,10.46,10.46,10.67,11.46,11.46,11.11,11.11,11.35,12.5,12.5,12.5,12.79,12.7,13.1,13.01,13.01,13.01,13.01,13.01,13.01,12.7,13.1,12.7,12.79,12.79,12.79,13.68,14.04,14.04,14.41,14.04,13.68,13.68,13.75,13.75,14.1,14.04,14.76,14.76,14.71,14.71,14.65,15.1,15.15,14.65,14.71,14.71,14.71,14.71,14.71,14.65,14.65,15.15,15.15,15.1,15.1,15.1,15.15,15.15,19.05,21.15,21.79,21.79,21.33,21.15,21.15,21.15,21.6,21.6,22.0,23.08,27.33,30.43,31.06,31.75,31.88,31.06,31.06,31.06,31.06,31.06,31.06,31.82,31.82,31.82,31.82,31.75,31.75,31.75,31.82,31.82,31.75,31.75,31.16,31.16,31.16,30.56,30.56,30.43,31.16,30.56,31.06,31.06,30.56,30.43,30.56,31.16,31.06,31.82,31.16,30.43,31.16,32.58,37.5,39.25,39.78,40.32,39.44,35.42,32.58,32.54,38.69,39.08,38.89,39.25,39.25,39.25,39.25,39.25,39.25,39.78,39.25,39.25,39.44,39.44,39.25,39.25,39.25,39.25,39.25
